x y z
-0.520408 -0.765306 0.336735
-0.520408 -0.765306 0.397959
-0.520408 -0.765306 0.459184
-0.459184 -0.765306 -0.520408
-0.459184 -0.765306 -0.459184
-0.459184 -0.765306 -0.397959
-0.459184 -0.765306 -0.336735
-0.459184 -0.765306 0.336735
-0.459184 -0.765306 0.397959
-0.459184 -0.765306 0.459184
-0.459184 -0.765306 0.520408
-0.397959 -0.765306 -0.581633
-0.397959 -0.765306 -0.520408
-0.397959 -0.765306 -0.459184
-0.397959 -0.765306 -0.397959
-0.397959 -0.765306 0.397959
-0.397959 -0.765306 0.459184
-0.397959 -0.765306 0.520408
-0.397959 -0.765306 0.581633
-0.336735 -0.765306 -0.581633
-0.336735 -0.765306 -0.520408
-0.336735 -0.765306 -0.459184
-0.336735 -0.765306 0.459184
-0.336735 -0.765306 0.520408
-0.336735 -0.765306 0.581633
-0.275510 -0.765306 -0.642857
-0.275510 -0.765306 -0.581633
-0.275510 -0.765306 -0.520408
-0.275510 -0.765306 0.520408
-0.275510 -0.765306 0.581633
-0.275510 -0.765306 0.642857
-0.214286 -0.765306 -0.642857
-0.214286 -0.765306 -0.581633
-0.214286 -0.765306 -0.520408
-0.214286 -0.765306 0.520408
-0.214286 -0.765306 0.581633
-0.214286 -0.765306 0.642857
-0.153061 -0.765306 -0.642857
-0.153061 -0.765306 -0.581633
-0.153061 -0.765306 0.581633
-0.153061 -0.765306 0.642857
-0.091837 -0.765306 -0.704082
-0.091837 -0.765306 -0.642857
-0.091837 -0.765306 -0.581633
-0.091837 -0.765306 0.581633
-0.091837 -0.765306 0.642857
-0.091837 -0.765306 0.704082
-0.030612 -0.765306 -0.704082
-0.030612 -0.765306 -0.642857
-0.030612 -0.765306 -0.581633
-0.030612 -0.765306 0.581633
-0.030612 -0.765306 0.642857
-0.030612 -0.765306 0.704082
0.030612 -0.765306 -0.704082
0.030612 -0.765306 -0.642857
0.030612 -0.765306 -0.581633
0.030612 -0.765306 0.581633
0.030612 -0.765306 0.642857
0.030612 -0.765306 0.704082
0.091837 -0.765306 -0.704082
0.091837 -0.765306 -0.642857
0.091837 -0.765306 -0.581633
0.091837 -0.765306 0.581633
0.091837 -0.765306 0.642857
0.091837 -0.765306 0.704082
0.153061 -0.765306 -0.642857
0.153061 -0.765306 -0.581633
0.153061 -0.765306 0.581633
0.153061 -0.765306 0.642857
0.214286 -0.765306 -0.642857
0.214286 -0.765306 -0.581633
0.214286 -0.765306 -0.520408
0.214286 -0.765306 0.520408
0.214286 -0.765306 0.581633
0.214286 -0.765306 0.642857
0.275510 -0.765306 -0.642857
0.275510 -0.765306 -0.581633
0.275510 -0.765306 -0.520408
0.275510 -0.765306 0.520408
0.275510 -0.765306 0.581633
0.275510 -0.765306 0.642857
0.336735 -0.765306 -0.581633
0.336735 -0.765306 -0.520408
0.336735 -0.765306 -0.459184
0.336735 -0.765306 0.459184
0.336735 -0.765306 0.520408
0.336735 -0.765306 0.581633
0.397959 -0.765306 -0.581633
0.397959 -0.765306 -0.520408
0.397959 -0.765306 -0.459184
0.397959 -0.765306 -0.397959
0.397959 -0.765306 0.397959
0.397959 -0.765306 0.459184
0.397959 -0.765306 0.520408
0.397959 -0.765306 0.581633
0.459184 -0.765306 -0.520408
0.459184 -0.765306 -0.459184
0.459184 -0.765306 -0.397959
0.459184 -0.765306 -0.336735
0.459184 -0.765306 0.336735
0.459184 -0.765306 0.397959
0.459184 -0.765306 0.459184
0.459184 -0.765306 0.520408
0.520408 -0.765306 -0.459184
0.520408 -0.765306 -0.397959
0.520408 -0.765306 -0.336735
0.520408 -0.765306 -0.275510
0.520408 -0.765306 -0.214286
0.520408 -0.765306 0.214286
0.520408 -0.765306 0.275510
0.520408 -0.765306 0.336735
0.520408 -0.765306 0.397959
0.520408 -0.765306 0.459184
0.581633 -0.765306 -0.397959
0.581633 -0.765306 -0.336735
0.581633 -0.765306 -0.275510
0.581633 -0.765306 -0.214286
0.581633 -0.765306 -0.153061
0.581633 -0.765306 -0.091837
0.581633 -0.765306 -0.030612
0.581633 -0.765306 0.030612
0.581633 -0.765306 0.091837
0.581633 -0.765306 0.153061
0.581633 -0.765306 0.214286
0.581633 -0.765306 0.275510
0.581633 -0.765306 0.336735
0.581633 -0.765306 0.397959
0.642857 -0.765306 -0.275510
0.642857 -0.765306 -0.214286
0.642857 -0.765306 -0.153061
0.642857 -0.765306 -0.091837
0.642857 -0.765306 -0.030612
0.642857 -0.765306 0.030612
0.642857 -0.765306 0.091837
0.642857 -0.765306 0.153061
0.642857 -0.765306 0.214286
0.642857 -0.765306 0.275510
0.704082 -0.765306 -0.091837
0.704082 -0.765306 -0.030612
0.704082 -0.765306 0.030612
0.704082 -0.765306 0.091837
-0.765306 -0.704082 -0.091837
-0.765306 -0.704082 -0.030612
-0.765306 -0.704082 0.030612
-0.765306 -0.704082 0.091837
-0.704082 -0.704082 -0.275510
-0.704082 -0.704082 -0.214286
-0.704082 -0.704082 -0.153061
-0.704082 -0.704082 -0.091837
-0.704082 -0.704082 -0.030612
-0.704082 -0.704082 0.030612
-0.704082 -0.704082 0.091837
-0.704082 -0.704082 0.153061
-0.704082 -0.704082 0.214286
-0.704082 -0.704082 0.275510
-0.642857 -0.704082 -0.397959
-0.642857 -0.704082 -0.336735
-0.642857 -0.704082 -0.275510
-0.642857 -0.704082 -0.214286
-0.642857 -0.704082 -0.153061
-0.642857 -0.704082 -0.091837
-0.642857 -0.704082 -0.030612
-0.642857 -0.704082 0.030612
-0.642857 -0.704082 0.091837
-0.642857 -0.704082 0.153061
-0.642857 -0.704082 0.214286
-0.642857 -0.704082 0.275510
-0.642857 -0.704082 0.336735
-0.642857 -0.704082 0.397959
-0.581633 -0.704082 -0.459184
-0.581633 -0.704082 -0.397959
-0.581633 -0.704082 -0.336735
-0.581633 -0.704082 -0.275510
-0.581633 -0.704082 0.275510
-0.581633 -0.704082 0.336735
-0.581633 -0.704082 0.397959
-0.581633 -0.704082 0.459184
-0.520408 -0.704082 -0.520408
-0.520408 -0.704082 -0.459184
-0.520408 -0.704082 -0.397959
-0.520408 -0.704082 0.397959
-0.520408 -0.704082 0.459184
-0.520408 -0.704082 0.520408
-0.459184 -0.704082 -0.581633
-0.459184 -0.704082 -0.520408
-0.459184 -0.704082 -0.459184
-0.459184 -0.704082 0.459184
-0.459184 -0.704082 0.520408
-0.459184 -0.704082 0.581633
-0.397959 -0.704082 -0.642857
-0.397959 -0.704082 -0.581633
-0.397959 -0.704082 -0.520408
-0.397959 -0.704082 0.520408
-0.397959 -0.704082 0.581633
-0.397959 -0.704082 0.642857
-0.336735 -0.704082 -0.642857
-0.336735 -0.704082 -0.581633
-0.336735 -0.704082 0.581633
-0.336735 -0.704082 0.642857
-0.275510 -0.704082 -0.704082
-0.275510 -0.704082 -0.642857
-0.275510 -0.704082 -0.581633
-0.275510 -0.704082 0.581633
-0.275510 -0.704082 0.642857
-0.275510 -0.704082 0.704082
-0.214286 -0.704082 -0.704082
-0.214286 -0.704082 -0.642857
-0.214286 -0.704082 0.642857
-0.214286 -0.704082 0.704082
-0.153061 -0.704082 -0.704082
-0.153061 -0.704082 -0.642857
-0.153061 -0.704082 0.642857
-0.153061 -0.704082 0.704082
-0.091837 -0.704082 -0.765306
-0.091837 -0.704082 -0.704082
-0.091837 -0.704082 -0.642857
-0.091837 -0.704082 0.642857
-0.091837 -0.704082 0.704082
-0.091837 -0.704082 0.765306
-0.030612 -0.704082 -0.765306
-0.030612 -0.704082 -0.704082
-0.030612 -0.704082 -0.642857
-0.030612 -0.704082 0.642857
-0.030612 -0.704082 0.704082
-0.030612 -0.704082 0.765306
0.030612 -0.704082 -0.765306
0.030612 -0.704082 -0.704082
0.030612 -0.704082 -0.642857
0.030612 -0.704082 0.642857
0.030612 -0.704082 0.704082
0.030612 -0.704082 0.765306
0.091837 -0.704082 -0.765306
0.091837 -0.704082 -0.704082
0.091837 -0.704082 -0.642857
0.091837 -0.704082 0.642857
0.091837 -0.704082 0.704082
0.091837 -0.704082 0.765306
0.153061 -0.704082 -0.704082
0.153061 -0.704082 -0.642857
0.153061 -0.704082 0.642857
0.153061 -0.704082 0.704082
0.214286 -0.704082 -0.704082
0.214286 -0.704082 -0.642857
0.214286 -0.704082 0.642857
0.214286 -0.704082 0.704082
0.275510 -0.704082 -0.704082
0.275510 -0.704082 -0.642857
0.275510 -0.704082 -0.581633
0.275510 -0.704082 0.581633
0.275510 -0.704082 0.642857
0.275510 -0.704082 0.704082
0.336735 -0.704082 -0.642857
0.336735 -0.704082 -0.581633
0.336735 -0.704082 0.581633
0.336735 -0.704082 0.642857
0.397959 -0.704082 -0.642857
0.397959 -0.704082 -0.581633
0.397959 -0.704082 -0.520408
0.397959 -0.704082 0.520408
0.397959 -0.704082 0.581633
0.397959 -0.704082 0.642857
0.459184 -0.704082 -0.581633
0.459184 -0.704082 -0.520408
0.459184 -0.704082 -0.459184
0.459184 -0.704082 0.459184
0.459184 -0.704082 0.520408
0.459184 -0.704082 0.581633
0.520408 -0.704082 -0.520408
0.520408 -0.704082 -0.459184
0.520408 -0.704082 -0.397959
0.520408 -0.704082 0.397959
0.520408 -0.704082 0.459184
0.520408 -0.704082 0.520408
0.581633 -0.704082 -0.459184
0.581633 -0.704082 -0.397959
0.581633 -0.704082 -0.336735
0.581633 -0.704082 -0.275510
0.581633 -0.704082 0.275510
0.581633 -0.704082 0.336735
0.581633 -0.704082 0.397959
0.581633 -0.704082 0.459184
0.642857 -0.704082 -0.397959
0.642857 -0.704082 -0.336735
0.642857 -0.704082 -0.275510
0.642857 -0.704082 -0.214286
0.642857 -0.704082 -0.153061
0.642857 -0.704082 -0.091837
0.642857 -0.704082 -0.030612
0.642857 -0.704082 0.030612
0.642857 -0.704082 0.091837
0.642857 -0.704082 0.153061
0.642857 -0.704082 0.214286
0.642857 -0.704082 0.275510
0.642857 -0.704082 0.336735
0.642857 -0.704082 0.397959
0.704082 -0.704082 -0.275510
0.704082 -0.704082 -0.214286
0.704082 -0.704082 -0.153061
0.704082 -0.704082 -0.091837
0.704082 -0.704082 -0.030612
0.704082 -0.704082 0.030612
0.704082 -0.704082 0.091837
0.704082 -0.704082 0.153061
0.704082 -0.704082 0.214286
0.704082 -0.704082 0.275510
0.765306 -0.704082 -0.091837
0.765306 -0.704082 -0.030612
0.765306 -0.704082 0.030612
0.765306 -0.704082 0.091837
-0.826531 -0.642857 -0.030612
-0.826531 -0.642857 0.030612
-0.765306 -0.642857 -0.275510
-0.765306 -0.642857 -0.214286
-0.765306 -0.642857 -0.153061
-0.765306 -0.642857 -0.091837
-0.765306 -0.642857 -0.030612
-0.765306 -0.642857 0.030612
-0.765306 -0.642857 0.091837
-0.765306 -0.642857 0.153061
-0.765306 -0.642857 0.214286
-0.765306 -0.642857 0.275510
-0.704082 -0.642857 -0.397959
-0.704082 -0.642857 -0.336735
-0.704082 -0.642857 -0.275510
-0.704082 -0.642857 -0.214286
-0.704082 -0.642857 -0.153061
-0.704082 -0.642857 -0.091837
-0.704082 -0.642857 -0.030612
-0.704082 -0.642857 0.030612
-0.704082 -0.642857 0.091837
-0.704082 -0.642857 0.153061
-0.704082 -0.642857 0.214286
-0.704082 -0.642857 0.275510
-0.704082 -0.642857 0.336735
-0.704082 -0.642857 0.397959
-0.642857 -0.642857 -0.520408
-0.642857 -0.642857 -0.459184
-0.642857 -0.642857 -0.397959
-0.642857 -0.642857 -0.336735
-0.642857 -0.642857 -0.275510
-0.642857 -0.642857 0.275510
-0.642857 -0.642857 0.336735
-0.642857 -0.642857 0.397959
-0.642857 -0.642857 0.459184
-0.642857 -0.642857 0.520408
-0.581633 -0.642857 -0.581633
-0.581633 -0.642857 -0.520408
-0.581633 -0.642857 -0.459184
-0.581633 -0.642857 -0.397959
-0.581633 -0.642857 0.397959
-0.581633 -0.642857 0.459184
-0.581633 -0.642857 0.520408
-0.581633 -0.642857 0.581633
-0.520408 -0.642857 -0.642857
-0.520408 -0.642857 -0.581633
-0.520408 -0.642857 -0.520408
-0.520408 -0.642857 0.520408
-0.520408 -0.642857 0.581633
-0.520408 -0.642857 0.642857
-0.459184 -0.642857 -0.642857
-0.459184 -0.642857 -0.581633
-0.459184 -0.642857 0.581633
-0.459184 -0.642857 0.642857
-0.397959 -0.642857 -0.704082
-0.397959 -0.642857 -0.642857
-0.397959 -0.642857 -0.581633
-0.397959 -0.642857 0.581633
-0.397959 -0.642857 0.642857
-0.397959 -0.642857 0.704082
-0.336735 -0.642857 -0.704082
-0.336735 -0.642857 -0.642857
-0.336735 -0.642857 0.642857
-0.336735 -0.642857 0.704082
-0.275510 -0.642857 -0.765306
-0.275510 -0.642857 -0.704082
-0.275510 -0.642857 -0.642857
-0.275510 -0.642857 0.642857
-0.275510 -0.642857 0.704082
-0.275510 -0.642857 0.765306
-0.214286 -0.642857 -0.765306
-0.214286 -0.642857 -0.704082
-0.214286 -0.642857 0.704082
-0.214286 -0.642857 0.765306
-0.153061 -0.642857 -0.765306
-0.153061 -0.642857 -0.704082
-0.153061 -0.642857 0.704082
-0.153061 -0.642857 0.765306
-0.091837 -0.642857 -0.765306
-0.091837 -0.642857 -0.704082
-0.091837 -0.642857 0.704082
-0.091837 -0.642857 0.765306
-0.030612 -0.642857 -0.826531
-0.030612 -0.642857 -0.765306
-0.030612 -0.642857 -0.704082
-0.030612 -0.642857 0.704082
-0.030612 -0.642857 0.765306
-0.030612 -0.642857 0.826531
0.030612 -0.642857 -0.826531
0.030612 -0.642857 -0.765306
0.030612 -0.642857 -0.704082
0.030612 -0.642857 0.704082
0.030612 -0.642857 0.765306
0.030612 -0.642857 0.826531
0.091837 -0.642857 -0.765306
0.091837 -0.642857 -0.704082
0.091837 -0.642857 0.704082
0.091837 -0.642857 0.765306
0.153061 -0.642857 -0.765306
0.153061 -0.642857 -0.704082
0.153061 -0.642857 0.704082
0.153061 -0.642857 0.765306
0.214286 -0.642857 -0.765306
0.214286 -0.642857 -0.704082
0.214286 -0.642857 0.704082
0.214286 -0.642857 0.765306
0.275510 -0.642857 -0.765306
0.275510 -0.642857 -0.704082
0.275510 -0.642857 -0.642857
0.275510 -0.642857 0.642857
0.275510 -0.642857 0.704082
0.275510 -0.642857 0.765306
0.336735 -0.642857 -0.704082
0.336735 -0.642857 -0.642857
0.336735 -0.642857 0.642857
0.336735 -0.642857 0.704082
0.397959 -0.642857 -0.704082
0.397959 -0.642857 -0.642857
0.397959 -0.642857 -0.581633
0.397959 -0.642857 0.581633
0.397959 -0.642857 0.642857
0.397959 -0.642857 0.704082
0.459184 -0.642857 -0.642857
0.459184 -0.642857 -0.581633
0.459184 -0.642857 0.581633
0.459184 -0.642857 0.642857
0.520408 -0.642857 -0.642857
0.520408 -0.642857 -0.581633
0.520408 -0.642857 -0.520408
0.520408 -0.642857 0.520408
0.520408 -0.642857 0.581633
0.520408 -0.642857 0.642857
0.581633 -0.642857 -0.581633
0.581633 -0.642857 -0.520408
0.581633 -0.642857 -0.459184
0.581633 -0.642857 -0.397959
0.581633 -0.642857 0.397959
0.581633 -0.642857 0.459184
0.581633 -0.642857 0.520408
0.581633 -0.642857 0.581633
0.642857 -0.642857 -0.520408
0.642857 -0.642857 -0.459184
0.642857 -0.642857 -0.397959
0.642857 -0.642857 -0.336735
0.642857 -0.642857 -0.275510
0.642857 -0.642857 0.275510
0.642857 -0.642857 0.336735
0.642857 -0.642857 0.397959
0.642857 -0.642857 0.459184
0.642857 -0.642857 0.520408
0.704082 -0.642857 -0.397959
0.704082 -0.642857 -0.336735
0.704082 -0.642857 -0.275510
0.704082 -0.642857 -0.214286
0.704082 -0.642857 -0.153061
0.704082 -0.642857 -0.091837
0.704082 -0.642857 -0.030612
0.704082 -0.642857 0.030612
0.704082 -0.642857 0.091837
0.704082 -0.642857 0.153061
0.704082 -0.642857 0.214286
0.704082 -0.642857 0.275510
0.704082 -0.642857 0.336735
0.704082 -0.642857 0.397959
0.765306 -0.642857 -0.275510
0.765306 -0.642857 -0.214286
0.765306 -0.642857 -0.153061
0.765306 -0.642857 -0.091837
0.765306 -0.642857 -0.030612
0.765306 -0.642857 0.030612
0.765306 -0.642857 0.091837
0.765306 -0.642857 0.153061
0.765306 -0.642857 0.214286
0.765306 -0.642857 0.275510
0.826531 -0.642857 -0.030612
0.826531 -0.642857 0.030612
-0.826531 -0.581633 -0.275510
-0.826531 -0.581633 -0.214286
-0.826531 -0.581633 -0.153061
-0.826531 -0.581633 -0.091837
-0.826531 -0.581633 -0.030612
-0.826531 -0.581633 0.030612
-0.826531 -0.581633 0.091837
-0.826531 -0.581633 0.153061
-0.826531 -0.581633 0.214286
-0.826531 -0.581633 0.275510
-0.765306 -0.581633 -0.397959
-0.765306 -0.581633 -0.336735
-0.765306 -0.581633 -0.275510
-0.765306 -0.581633 -0.214286
-0.765306 -0.581633 -0.153061
-0.765306 -0.581633 -0.091837
-0.765306 -0.581633 -0.030612
-0.765306 -0.581633 0.030612
-0.765306 -0.581633 0.091837
-0.765306 -0.581633 0.153061
-0.765306 -0.581633 0.214286
-0.765306 -0.581633 0.275510
-0.765306 -0.581633 0.336735
-0.765306 -0.581633 0.397959
-0.704082 -0.581633 -0.459184
-0.704082 -0.581633 -0.397959
-0.704082 -0.581633 -0.336735
-0.704082 -0.581633 -0.275510
-0.704082 -0.581633 0.275510
-0.704082 -0.581633 0.336735
-0.704082 -0.581633 0.397959
-0.704082 -0.581633 0.459184
-0.642857 -0.581633 -0.581633
-0.642857 -0.581633 -0.520408
-0.642857 -0.581633 -0.459184
-0.642857 -0.581633 -0.397959
-0.642857 -0.581633 0.397959
-0.642857 -0.581633 0.459184
-0.642857 -0.581633 0.520408
-0.642857 -0.581633 0.581633
-0.581633 -0.581633 -0.642857
-0.581633 -0.581633 -0.581633
-0.581633 -0.581633 -0.520408
-0.581633 -0.581633 0.520408
-0.581633 -0.581633 0.581633
-0.581633 -0.581633 0.642857
-0.520408 -0.581633 -0.642857
-0.520408 -0.581633 -0.581633
-0.520408 -0.581633 0.581633
-0.520408 -0.581633 0.642857
-0.459184 -0.581633 -0.704082
-0.459184 -0.581633 -0.642857
-0.459184 -0.581633 0.642857
-0.459184 -0.581633 0.704082
-0.397959 -0.581633 -0.765306
-0.397959 -0.581633 -0.704082
-0.397959 -0.581633 -0.642857
-0.397959 -0.581633 0.642857
-0.397959 -0.581633 0.704082
-0.397959 -0.581633 0.765306
-0.336735 -0.581633 -0.765306
-0.336735 -0.581633 -0.704082
-0.336735 -0.581633 0.704082
-0.336735 -0.581633 0.765306
-0.275510 -0.581633 -0.826531
-0.275510 -0.581633 -0.765306
-0.275510 -0.581633 -0.704082
-0.275510 -0.581633 0.704082
-0.275510 -0.581633 0.765306
-0.275510 -0.581633 0.826531
-0.214286 -0.581633 -0.826531
-0.214286 -0.581633 -0.765306
-0.214286 -0.581633 0.765306
-0.214286 -0.581633 0.826531
-0.153061 -0.581633 -0.826531
-0.153061 -0.581633 -0.765306
-0.153061 -0.581633 0.765306
-0.153061 -0.581633 0.826531
-0.091837 -0.581633 -0.826531
-0.091837 -0.581633 -0.765306
-0.091837 -0.581633 0.765306
-0.091837 -0.581633 0.826531
-0.030612 -0.581633 -0.826531
-0.030612 -0.581633 -0.765306
-0.030612 -0.581633 0.765306
-0.030612 -0.581633 0.826531
0.030612 -0.581633 -0.826531
0.030612 -0.581633 -0.765306
0.030612 -0.581633 0.765306
0.030612 -0.581633 0.826531
0.091837 -0.581633 -0.826531
0.091837 -0.581633 -0.765306
0.091837 -0.581633 0.765306
0.091837 -0.581633 0.826531
0.153061 -0.581633 -0.826531
0.153061 -0.581633 -0.765306
0.153061 -0.581633 0.765306
0.153061 -0.581633 0.826531
0.214286 -0.581633 -0.826531
0.214286 -0.581633 -0.765306
0.214286 -0.581633 0.765306
0.214286 -0.581633 0.826531
0.275510 -0.581633 -0.826531
0.275510 -0.581633 -0.765306
0.275510 -0.581633 -0.704082
0.275510 -0.581633 0.704082
0.275510 -0.581633 0.765306
0.275510 -0.581633 0.826531
0.336735 -0.581633 -0.765306
0.336735 -0.581633 -0.704082
0.336735 -0.581633 0.704082
0.336735 -0.581633 0.765306
0.397959 -0.581633 -0.765306
0.397959 -0.581633 -0.704082
0.397959 -0.581633 -0.642857
0.397959 -0.581633 0.642857
0.397959 -0.581633 0.704082
0.397959 -0.581633 0.765306
0.459184 -0.581633 -0.704082
0.459184 -0.581633 -0.642857
0.459184 -0.581633 0.642857
0.459184 -0.581633 0.704082
0.520408 -0.581633 -0.642857
0.520408 -0.581633 -0.581633
0.520408 -0.581633 0.581633
0.520408 -0.581633 0.642857
0.581633 -0.581633 -0.642857
0.581633 -0.581633 -0.581633
0.581633 -0.581633 -0.520408
0.581633 -0.581633 0.520408
0.581633 -0.581633 0.581633
0.581633 -0.581633 0.642857
0.642857 -0.581633 -0.581633
0.642857 -0.581633 -0.520408
0.642857 -0.581633 -0.459184
0.642857 -0.581633 -0.397959
0.642857 -0.581633 0.397959
0.642857 -0.581633 0.459184
0.642857 -0.581633 0.520408
0.642857 -0.581633 0.581633
0.704082 -0.581633 -0.459184
0.704082 -0.581633 -0.397959
0.704082 -0.581633 -0.336735
0.704082 -0.581633 -0.275510
0.704082 -0.581633 0.275510
0.704082 -0.581633 0.336735
0.704082 -0.581633 0.397959
0.704082 -0.581633 0.459184
0.765306 -0.581633 -0.397959
0.765306 -0.581633 -0.336735
0.765306 -0.581633 -0.275510
0.765306 -0.581633 -0.214286
0.765306 -0.581633 -0.153061
0.765306 -0.581633 -0.091837
0.765306 -0.581633 -0.030612
0.765306 -0.581633 0.030612
0.765306 -0.581633 0.091837
0.765306 -0.581633 0.153061
0.765306 -0.581633 0.214286
0.765306 -0.581633 0.275510
0.765306 -0.581633 0.336735
0.765306 -0.581633 0.397959
0.826531 -0.581633 -0.275510
0.826531 -0.581633 -0.214286
0.826531 -0.581633 -0.153061
0.826531 -0.581633 -0.091837
0.826531 -0.581633 -0.030612
0.826531 -0.581633 0.030612
0.826531 -0.581633 0.091837
0.826531 -0.581633 0.153061
0.826531 -0.581633 0.214286
0.826531 -0.581633 0.275510
-0.887755 -0.520408 -0.153061
-0.887755 -0.520408 -0.091837
-0.887755 -0.520408 -0.030612
-0.887755 -0.520408 0.030612
-0.887755 -0.520408 0.091837
-0.887755 -0.520408 0.153061
-0.826531 -0.520408 -0.336735
-0.826531 -0.520408 -0.275510
-0.826531 -0.520408 -0.214286
-0.826531 -0.520408 -0.153061
-0.826531 -0.520408 -0.091837
-0.826531 -0.520408 -0.030612
-0.826531 -0.520408 0.030612
-0.826531 -0.520408 0.091837
-0.826531 -0.520408 0.153061
-0.826531 -0.520408 0.214286
-0.826531 -0.520408 0.275510
-0.826531 -0.520408 0.336735
-0.765306 -0.520408 -0.459184
-0.765306 -0.520408 -0.397959
-0.765306 -0.520408 -0.336735
-0.765306 -0.520408 -0.275510
-0.765306 -0.520408 -0.214286
-0.765306 -0.520408 0.214286
-0.765306 -0.520408 0.275510
-0.765306 -0.520408 0.336735
-0.765306 -0.520408 0.397959
-0.765306 -0.520408 0.459184
-0.704082 -0.520408 -0.520408
-0.704082 -0.520408 -0.459184
-0.704082 -0.520408 -0.397959
-0.704082 -0.520408 0.397959
-0.704082 -0.520408 0.459184
-0.704082 -0.520408 0.520408
-0.642857 -0.520408 -0.642857
-0.642857 -0.520408 -0.581633
-0.642857 -0.520408 -0.520408
-0.642857 -0.520408 0.520408
-0.642857 -0.520408 0.581633
-0.642857 -0.520408 0.642857
-0.581633 -0.520408 -0.642857
-0.581633 -0.520408 -0.581633
-0.581633 -0.520408 0.581633
-0.581633 -0.520408 0.642857
-0.520408 -0.520408 -0.704082
-0.520408 -0.520408 -0.642857
-0.520408 -0.520408 0.642857
-0.520408 -0.520408 0.704082
-0.459184 -0.520408 -0.765306
-0.459184 -0.520408 -0.704082
-0.459184 -0.520408 0.704082
-0.459184 -0.520408 0.765306
-0.397959 -0.520408 -0.765306
-0.397959 -0.520408 -0.704082
-0.397959 -0.520408 0.704082
-0.397959 -0.520408 0.765306
-0.336735 -0.520408 -0.826531
-0.336735 -0.520408 -0.765306
-0.336735 -0.520408 0.765306
-0.336735 -0.520408 0.826531
-0.275510 -0.520408 -0.826531
-0.275510 -0.520408 -0.765306
-0.275510 -0.520408 0.765306
-0.275510 -0.520408 0.826531
-0.214286 -0.520408 -0.826531
-0.214286 -0.520408 -0.765306
-0.214286 -0.520408 0.765306
-0.214286 -0.520408 0.826531
-0.153061 -0.520408 -0.887755
-0.153061 -0.520408 -0.826531
-0.153061 -0.520408 0.826531
-0.153061 -0.520408 0.887755
-0.091837 -0.520408 -0.887755
-0.091837 -0.520408 -0.826531
-0.091837 -0.520408 0.826531
-0.091837 -0.520408 0.887755
-0.030612 -0.520408 -0.887755
-0.030612 -0.520408 -0.826531
-0.030612 -0.520408 0.826531
-0.030612 -0.520408 0.887755
0.030612 -0.520408 -0.887755
0.030612 -0.520408 -0.826531
0.030612 -0.520408 0.826531
0.030612 -0.520408 0.887755
0.091837 -0.520408 -0.887755
0.091837 -0.520408 -0.826531
0.091837 -0.520408 0.826531
0.091837 -0.520408 0.887755
0.153061 -0.520408 -0.887755
0.153061 -0.520408 -0.826531
0.153061 -0.520408 0.826531
0.153061 -0.520408 0.887755
0.214286 -0.520408 -0.826531
0.214286 -0.520408 -0.765306
0.214286 -0.520408 0.765306
0.214286 -0.520408 0.826531
0.275510 -0.520408 -0.826531
0.275510 -0.520408 -0.765306
0.275510 -0.520408 0.765306
0.275510 -0.520408 0.826531
0.336735 -0.520408 -0.826531
0.336735 -0.520408 -0.765306
0.336735 -0.520408 0.765306
0.336735 -0.520408 0.826531
0.397959 -0.520408 -0.765306
0.397959 -0.520408 -0.704082
0.397959 -0.520408 0.704082
0.397959 -0.520408 0.765306
0.459184 -0.520408 -0.765306
0.459184 -0.520408 -0.704082
0.459184 -0.520408 0.704082
0.459184 -0.520408 0.765306
0.520408 -0.520408 -0.704082
0.520408 -0.520408 -0.642857
0.520408 -0.520408 0.642857
0.520408 -0.520408 0.704082
0.581633 -0.520408 -0.642857
0.581633 -0.520408 -0.581633
0.581633 -0.520408 0.581633
0.581633 -0.520408 0.642857
0.642857 -0.520408 -0.642857
0.642857 -0.520408 -0.581633
0.642857 -0.520408 -0.520408
0.642857 -0.520408 0.520408
0.642857 -0.520408 0.581633
0.642857 -0.520408 0.642857
0.704082 -0.520408 -0.520408
0.704082 -0.520408 -0.459184
0.704082 -0.520408 -0.397959
0.704082 -0.520408 0.397959
0.704082 -0.520408 0.459184
0.704082 -0.520408 0.520408
0.765306 -0.520408 -0.459184
0.765306 -0.520408 -0.397959
0.765306 -0.520408 -0.336735
0.765306 -0.520408 -0.275510
0.765306 -0.520408 -0.214286
0.765306 -0.520408 0.214286
0.765306 -0.520408 0.275510
0.765306 -0.520408 0.336735
0.765306 -0.520408 0.397959
0.765306 -0.520408 0.459184
0.826531 -0.520408 -0.336735
0.826531 -0.520408 -0.275510
0.826531 -0.520408 -0.214286
0.826531 -0.520408 -0.153061
0.826531 -0.520408 -0.091837
0.826531 -0.520408 -0.030612
0.826531 -0.520408 0.030612
0.826531 -0.520408 0.091837
0.826531 -0.520408 0.153061
0.826531 -0.520408 0.214286
0.826531 -0.520408 0.275510
0.826531 -0.520408 0.336735
0.887755 -0.520408 -0.153061
0.887755 -0.520408 -0.091837
0.887755 -0.520408 -0.030612
0.887755 -0.520408 0.030612
0.887755 -0.520408 0.091837
0.887755 -0.520408 0.153061
-0.887755 -0.459184 -0.275510
-0.887755 -0.459184 -0.214286
-0.887755 -0.459184 -0.153061
-0.887755 -0.459184 -0.091837
-0.887755 -0.459184 -0.030612
-0.887755 -0.459184 0.030612
-0.887755 -0.459184 0.091837
-0.887755 -0.459184 0.153061
-0.887755 -0.459184 0.214286
-0.887755 -0.459184 0.275510
-0.826531 -0.459184 -0.397959
-0.826531 -0.459184 -0.336735
-0.826531 -0.459184 -0.275510
-0.826531 -0.459184 -0.214286
-0.826531 -0.459184 -0.153061
-0.826531 -0.459184 -0.091837
-0.826531 -0.459184 0.091837
-0.826531 -0.459184 0.153061
-0.826531 -0.459184 0.214286
-0.826531 -0.459184 0.275510
-0.826531 -0.459184 0.336735
-0.826531 -0.459184 0.397959
-0.765306 -0.459184 -0.520408
-0.765306 -0.459184 -0.459184
-0.765306 -0.459184 -0.397959
-0.765306 -0.459184 -0.336735
-0.765306 -0.459184 0.336735
-0.765306 -0.459184 0.397959
-0.765306 -0.459184 0.459184
-0.765306 -0.459184 0.520408
-0.704082 -0.459184 -0.581633
-0.704082 -0.459184 -0.520408
-0.704082 -0.459184 -0.459184
-0.704082 -0.459184 0.459184
-0.704082 -0.459184 0.520408
-0.704082 -0.459184 0.581633
-0.642857 -0.459184 -0.642857
-0.642857 -0.459184 -0.581633
-0.642857 -0.459184 0.581633
-0.642857 -0.459184 0.642857
-0.581633 -0.459184 -0.704082
-0.581633 -0.459184 -0.642857
-0.581633 -0.459184 0.642857
-0.581633 -0.459184 0.704082
-0.520408 -0.459184 -0.765306
-0.520408 -0.459184 -0.704082
-0.520408 -0.459184 0.704082
-0.520408 -0.459184 0.765306
-0.459184 -0.459184 -0.765306
-0.459184 -0.459184 -0.704082
-0.459184 -0.459184 0.704082
-0.459184 -0.459184 0.765306
-0.397959 -0.459184 -0.826531
-0.397959 -0.459184 -0.765306
-0.397959 -0.459184 0.765306
-0.397959 -0.459184 0.826531
-0.336735 -0.459184 -0.826531
-0.336735 -0.459184 -0.765306
-0.336735 -0.459184 0.765306
-0.336735 -0.459184 0.826531
-0.275510 -0.459184 -0.887755
-0.275510 -0.459184 -0.826531
-0.275510 -0.459184 0.826531
-0.275510 -0.459184 0.887755
-0.214286 -0.459184 -0.887755
-0.214286 -0.459184 -0.826531
-0.214286 -0.459184 0.826531
-0.214286 -0.459184 0.887755
-0.153061 -0.459184 -0.887755
-0.153061 -0.459184 -0.826531
-0.153061 -0.459184 0.826531
-0.153061 -0.459184 0.887755
-0.091837 -0.459184 -0.887755
-0.091837 -0.459184 -0.826531
-0.091837 -0.459184 0.826531
-0.091837 -0.459184 0.887755
-0.030612 -0.459184 -0.887755
-0.030612 -0.459184 0.887755
0.030612 -0.459184 -0.887755
0.030612 -0.459184 0.887755
0.091837 -0.459184 -0.887755
0.091837 -0.459184 -0.826531
0.091837 -0.459184 0.826531
0.091837 -0.459184 0.887755
0.153061 -0.459184 -0.887755
0.153061 -0.459184 -0.826531
0.153061 -0.459184 0.826531
0.153061 -0.459184 0.887755
0.214286 -0.459184 -0.887755
0.214286 -0.459184 -0.826531
0.214286 -0.459184 0.826531
0.214286 -0.459184 0.887755
0.275510 -0.459184 -0.887755
0.275510 -0.459184 -0.826531
0.275510 -0.459184 0.826531
0.275510 -0.459184 0.887755
0.336735 -0.459184 -0.826531
0.336735 -0.459184 -0.765306
0.336735 -0.459184 0.765306
0.336735 -0.459184 0.826531
0.397959 -0.459184 -0.826531
0.397959 -0.459184 -0.765306
0.397959 -0.459184 0.765306
0.397959 -0.459184 0.826531
0.459184 -0.459184 -0.765306
0.459184 -0.459184 -0.704082
0.459184 -0.459184 0.704082
0.459184 -0.459184 0.765306
0.520408 -0.459184 -0.765306
0.520408 -0.459184 -0.704082
0.520408 -0.459184 0.704082
0.520408 -0.459184 0.765306
0.581633 -0.459184 -0.704082
0.581633 -0.459184 -0.642857
0.581633 -0.459184 0.642857
0.581633 -0.459184 0.704082
0.642857 -0.459184 -0.642857
0.642857 -0.459184 -0.581633
0.642857 -0.459184 0.581633
0.642857 -0.459184 0.642857
0.704082 -0.459184 -0.581633
0.704082 -0.459184 -0.520408
0.704082 -0.459184 -0.459184
0.704082 -0.459184 0.459184
0.704082 -0.459184 0.520408
0.704082 -0.459184 0.581633
0.765306 -0.459184 -0.520408
0.765306 -0.459184 -0.459184
0.765306 -0.459184 -0.397959
0.765306 -0.459184 -0.336735
0.765306 -0.459184 0.336735
0.765306 -0.459184 0.397959
0.765306 -0.459184 0.459184
0.765306 -0.459184 0.520408
0.826531 -0.459184 -0.397959
0.826531 -0.459184 -0.336735
0.826531 -0.459184 -0.275510
0.826531 -0.459184 -0.214286
0.826531 -0.459184 -0.153061
0.826531 -0.459184 -0.091837
0.826531 -0.459184 0.091837
0.826531 -0.459184 0.153061
0.826531 -0.459184 0.214286
0.826531 -0.459184 0.275510
0.826531 -0.459184 0.336735
0.826531 -0.459184 0.397959
0.887755 -0.459184 -0.275510
0.887755 -0.459184 -0.214286
0.887755 -0.459184 -0.153061
0.887755 -0.459184 -0.091837
0.887755 -0.459184 -0.030612
0.887755 -0.459184 0.030612
0.887755 -0.459184 0.091837
0.887755 -0.459184 0.153061
0.887755 -0.459184 0.214286
0.887755 -0.459184 0.275510
-0.948980 -0.397959 -0.153061
-0.948980 -0.397959 -0.091837
-0.948980 -0.397959 -0.030612
-0.948980 -0.397959 0.030612
-0.948980 -0.397959 0.091837
-0.948980 -0.397959 0.153061
-0.887755 -0.397959 -0.336735
-0.887755 -0.397959 -0.275510
-0.887755 -0.397959 -0.214286
-0.887755 -0.397959 -0.153061
-0.887755 -0.397959 -0.091837
-0.887755 -0.397959 -0.030612
-0.887755 -0.397959 0.030612
-0.887755 -0.397959 0.091837
-0.887755 -0.397959 0.153061
-0.887755 -0.397959 0.214286
-0.887755 -0.397959 0.275510
-0.887755 -0.397959 0.336735
-0.826531 -0.397959 -0.459184
-0.826531 -0.397959 -0.397959
-0.826531 -0.397959 -0.336735
-0.826531 -0.397959 -0.275510
-0.826531 -0.397959 0.275510
-0.826531 -0.397959 0.336735
-0.826531 -0.397959 0.397959
-0.826531 -0.397959 0.459184
-0.765306 -0.397959 -0.581633
-0.765306 -0.397959 -0.520408
-0.765306 -0.397959 -0.459184
-0.765306 -0.397959 -0.397959
-0.765306 -0.397959 0.397959
-0.765306 -0.397959 0.459184
-0.765306 -0.397959 0.520408
-0.765306 -0.397959 0.581633
-0.704082 -0.397959 -0.642857
-0.704082 -0.397959 -0.581633
-0.704082 -0.397959 -0.520408
-0.704082 -0.397959 0.520408
-0.704082 -0.397959 0.581633
-0.704082 -0.397959 0.642857
-0.642857 -0.397959 -0.704082
-0.642857 -0.397959 -0.642857
-0.642857 -0.397959 -0.581633
-0.642857 -0.397959 0.581633
-0.642857 -0.397959 0.642857
-0.642857 -0.397959 0.704082
-0.581633 -0.397959 -0.765306
-0.581633 -0.397959 -0.704082
-0.581633 -0.397959 -0.642857
-0.581633 -0.397959 0.642857
-0.581633 -0.397959 0.704082
-0.581633 -0.397959 0.765306
-0.520408 -0.397959 -0.765306
-0.520408 -0.397959 -0.704082
-0.520408 -0.397959 0.704082
-0.520408 -0.397959 0.765306
-0.459184 -0.397959 -0.826531
-0.459184 -0.397959 -0.765306
-0.459184 -0.397959 0.765306
-0.459184 -0.397959 0.826531
-0.397959 -0.397959 -0.826531
-0.397959 -0.397959 -0.765306
-0.397959 -0.397959 0.765306
-0.397959 -0.397959 0.826531
-0.336735 -0.397959 -0.887755
-0.336735 -0.397959 -0.826531
-0.336735 -0.397959 0.826531
-0.336735 -0.397959 0.887755
-0.275510 -0.397959 -0.887755
-0.275510 -0.397959 -0.826531
-0.275510 -0.397959 0.826531
-0.275510 -0.397959 0.887755
-0.214286 -0.397959 -0.887755
-0.214286 -0.397959 0.887755
-0.153061 -0.397959 -0.948980
-0.153061 -0.397959 -0.887755
-0.153061 -0.397959 0.887755
-0.153061 -0.397959 0.948980
-0.091837 -0.397959 -0.948980
-0.091837 -0.397959 -0.887755
-0.091837 -0.397959 0.887755
-0.091837 -0.397959 0.948980
-0.030612 -0.397959 -0.948980
-0.030612 -0.397959 -0.887755
-0.030612 -0.397959 0.887755
-0.030612 -0.397959 0.948980
0.030612 -0.397959 -0.948980
0.030612 -0.397959 -0.887755
0.030612 -0.397959 0.887755
0.030612 -0.397959 0.948980
0.091837 -0.397959 -0.948980
0.091837 -0.397959 -0.887755
0.091837 -0.397959 0.887755
0.091837 -0.397959 0.948980
0.153061 -0.397959 -0.948980
0.153061 -0.397959 -0.887755
0.153061 -0.397959 0.887755
0.153061 -0.397959 0.948980
0.214286 -0.397959 -0.887755
0.214286 -0.397959 0.887755
0.275510 -0.397959 -0.887755
0.275510 -0.397959 -0.826531
0.275510 -0.397959 0.826531
0.275510 -0.397959 0.887755
0.336735 -0.397959 -0.887755
0.336735 -0.397959 -0.826531
0.336735 -0.397959 0.826531
0.336735 -0.397959 0.887755
0.397959 -0.397959 -0.826531
0.397959 -0.397959 -0.765306
0.397959 -0.397959 0.765306
0.397959 -0.397959 0.826531
0.459184 -0.397959 -0.826531
0.459184 -0.397959 -0.765306
0.459184 -0.397959 0.765306
0.459184 -0.397959 0.826531
0.520408 -0.397959 -0.765306
0.520408 -0.397959 -0.704082
0.520408 -0.397959 0.704082
0.520408 -0.397959 0.765306
0.581633 -0.397959 -0.765306
0.581633 -0.397959 -0.704082
0.581633 -0.397959 -0.642857
0.581633 -0.397959 0.642857
0.581633 -0.397959 0.704082
0.581633 -0.397959 0.765306
0.642857 -0.397959 -0.704082
0.642857 -0.397959 -0.642857
0.642857 -0.397959 -0.581633
0.642857 -0.397959 0.581633
0.642857 -0.397959 0.642857
0.642857 -0.397959 0.704082
0.704082 -0.397959 -0.642857
0.704082 -0.397959 -0.581633
0.704082 -0.397959 -0.520408
0.704082 -0.397959 0.520408
0.704082 -0.397959 0.581633
0.704082 -0.397959 0.642857
0.765306 -0.397959 -0.581633
0.765306 -0.397959 -0.520408
0.765306 -0.397959 -0.459184
0.765306 -0.397959 -0.397959
0.765306 -0.397959 0.397959
0.765306 -0.397959 0.459184
0.765306 -0.397959 0.520408
0.765306 -0.397959 0.581633
0.826531 -0.397959 -0.459184
0.826531 -0.397959 -0.397959
0.826531 -0.397959 -0.336735
0.826531 -0.397959 -0.275510
0.826531 -0.397959 0.275510
0.826531 -0.397959 0.336735
0.826531 -0.397959 0.397959
0.826531 -0.397959 0.459184
0.887755 -0.397959 -0.336735
0.887755 -0.397959 -0.275510
0.887755 -0.397959 -0.214286
0.887755 -0.397959 -0.153061
0.887755 -0.397959 -0.091837
0.887755 -0.397959 -0.030612
0.887755 -0.397959 0.030612
0.887755 -0.397959 0.091837
0.887755 -0.397959 0.153061
0.887755 -0.397959 0.214286
0.887755 -0.397959 0.275510
0.887755 -0.397959 0.336735
0.948980 -0.397959 -0.153061
0.948980 -0.397959 -0.091837
0.948980 -0.397959 -0.030612
0.948980 -0.397959 0.030612
0.948980 -0.397959 0.091837
0.948980 -0.397959 0.153061
-0.948980 -0.336735 -0.275510
-0.948980 -0.336735 -0.214286
-0.948980 -0.336735 -0.153061
-0.948980 -0.336735 -0.091837
-0.948980 -0.336735 -0.030612
-0.948980 -0.336735 0.030612
-0.948980 -0.336735 0.091837
-0.948980 -0.336735 0.153061
-0.948980 -0.336735 0.214286
-0.948980 -0.336735 0.275510
-0.887755 -0.336735 -0.397959
-0.887755 -0.336735 -0.336735
-0.887755 -0.336735 -0.275510
-0.887755 -0.336735 -0.214286
-0.887755 -0.336735 -0.153061
-0.887755 -0.336735 -0.091837
-0.887755 -0.336735 -0.030612
-0.887755 -0.336735 0.030612
-0.887755 -0.336735 0.091837
-0.887755 -0.336735 0.153061
-0.887755 -0.336735 0.214286
-0.887755 -0.336735 0.275510
-0.887755 -0.336735 0.336735
-0.887755 -0.336735 0.397959
-0.826531 -0.336735 -0.520408
-0.826531 -0.336735 -0.459184
-0.826531 -0.336735 -0.397959
-0.826531 -0.336735 -0.336735
-0.826531 -0.336735 0.336735
-0.826531 -0.336735 0.397959
-0.826531 -0.336735 0.459184
-0.826531 -0.336735 0.520408
-0.765306 -0.336735 -0.581633
-0.765306 -0.336735 -0.520408
-0.765306 -0.336735 -0.459184
-0.765306 -0.336735 0.459184
-0.765306 -0.336735 0.520408
-0.765306 -0.336735 0.581633
-0.704082 -0.336735 -0.642857
-0.704082 -0.336735 -0.581633
-0.704082 -0.336735 0.581633
-0.704082 -0.336735 0.642857
-0.642857 -0.336735 -0.704082
-0.642857 -0.336735 -0.642857
-0.642857 -0.336735 0.642857
-0.642857 -0.336735 0.704082
-0.581633 -0.336735 -0.765306
-0.581633 -0.336735 -0.704082
-0.581633 -0.336735 0.704082
-0.581633 -0.336735 0.765306
-0.520408 -0.336735 -0.826531
-0.520408 -0.336735 -0.765306
-0.520408 -0.336735 0.765306
-0.520408 -0.336735 0.826531
-0.459184 -0.336735 -0.826531
-0.459184 -0.336735 -0.765306
-0.459184 -0.336735 0.765306
-0.459184 -0.336735 0.826531
-0.397959 -0.336735 -0.887755
-0.397959 -0.336735 -0.826531
-0.397959 -0.336735 0.826531
-0.397959 -0.336735 0.887755
-0.336735 -0.336735 -0.887755
-0.336735 -0.336735 -0.826531
-0.336735 -0.336735 0.826531
-0.336735 -0.336735 0.887755
-0.275510 -0.336735 -0.948980
-0.275510 -0.336735 -0.887755
-0.275510 -0.336735 0.887755
-0.275510 -0.336735 0.948980
-0.214286 -0.336735 -0.948980
-0.214286 -0.336735 -0.887755
-0.214286 -0.336735 0.887755
-0.214286 -0.336735 0.948980
-0.153061 -0.336735 -0.948980
-0.153061 -0.336735 -0.887755
-0.153061 -0.336735 0.887755
-0.153061 -0.336735 0.948980
-0.091837 -0.336735 -0.948980
-0.091837 -0.336735 -0.887755
-0.091837 -0.336735 0.887755
-0.091837 -0.336735 0.948980
-0.030612 -0.336735 -0.948980
-0.030612 -0.336735 -0.887755
-0.030612 -0.336735 0.887755
-0.030612 -0.336735 0.948980
0.030612 -0.336735 -0.948980
0.030612 -0.336735 -0.887755
0.030612 -0.336735 0.887755
0.030612 -0.336735 0.948980
0.091837 -0.336735 -0.948980
0.091837 -0.336735 -0.887755
0.091837 -0.336735 0.887755
0.091837 -0.336735 0.948980
0.153061 -0.336735 -0.948980
0.153061 -0.336735 -0.887755
0.153061 -0.336735 0.887755
0.153061 -0.336735 0.948980
0.214286 -0.336735 -0.948980
0.214286 -0.336735 -0.887755
0.214286 -0.336735 0.887755
0.214286 -0.336735 0.948980
0.275510 -0.336735 -0.948980
0.275510 -0.336735 -0.887755
0.275510 -0.336735 0.887755
0.275510 -0.336735 0.948980
0.336735 -0.336735 -0.887755
0.336735 -0.336735 -0.826531
0.336735 -0.336735 0.826531
0.336735 -0.336735 0.887755
0.397959 -0.336735 -0.887755
0.397959 -0.336735 -0.826531
0.397959 -0.336735 0.826531
0.397959 -0.336735 0.887755
0.459184 -0.336735 -0.826531
0.459184 -0.336735 -0.765306
0.459184 -0.336735 0.765306
0.459184 -0.336735 0.826531
0.520408 -0.336735 -0.826531
0.520408 -0.336735 -0.765306
0.520408 -0.336735 0.765306
0.520408 -0.336735 0.826531
0.581633 -0.336735 -0.765306
0.581633 -0.336735 -0.704082
0.581633 -0.336735 0.704082
0.581633 -0.336735 0.765306
0.642857 -0.336735 -0.704082
0.642857 -0.336735 -0.642857
0.642857 -0.336735 0.642857
0.642857 -0.336735 0.704082
0.704082 -0.336735 -0.642857
0.704082 -0.336735 -0.581633
0.704082 -0.336735 0.581633
0.704082 -0.336735 0.642857
0.765306 -0.336735 -0.581633
0.765306 -0.336735 -0.520408
0.765306 -0.336735 -0.459184
0.765306 -0.336735 0.459184
0.765306 -0.336735 0.520408
0.765306 -0.336735 0.581633
0.826531 -0.336735 -0.520408
0.826531 -0.336735 -0.459184
0.826531 -0.336735 -0.397959
0.826531 -0.336735 -0.336735
0.826531 -0.336735 0.336735
0.826531 -0.336735 0.397959
0.826531 -0.336735 0.459184
0.826531 -0.336735 0.520408
0.887755 -0.336735 -0.397959
0.887755 -0.336735 -0.336735
0.887755 -0.336735 -0.275510
0.887755 -0.336735 -0.214286
0.887755 -0.336735 -0.153061
0.887755 -0.336735 -0.091837
0.887755 -0.336735 -0.030612
0.887755 -0.336735 0.030612
0.887755 -0.336735 0.091837
0.887755 -0.336735 0.153061
0.887755 -0.336735 0.214286
0.887755 -0.336735 0.275510
0.887755 -0.336735 0.336735
0.887755 -0.336735 0.397959
0.948980 -0.336735 -0.275510
0.948980 -0.336735 -0.214286
0.948980 -0.336735 -0.153061
0.948980 -0.336735 -0.091837
0.948980 -0.336735 -0.030612
0.948980 -0.336735 0.030612
0.948980 -0.336735 0.091837
0.948980 -0.336735 0.153061
0.948980 -0.336735 0.214286
0.948980 -0.336735 0.275510
-1.010204 -0.275510 -0.030612
-1.010204 -0.275510 0.030612
-0.948980 -0.275510 -0.336735
-0.948980 -0.275510 -0.275510
-0.948980 -0.275510 -0.214286
-0.948980 -0.275510 -0.153061
-0.948980 -0.275510 -0.091837
-0.948980 -0.275510 -0.030612
-0.948980 -0.275510 0.030612
-0.948980 -0.275510 0.091837
-0.948980 -0.275510 0.153061
-0.948980 -0.275510 0.214286
-0.948980 -0.275510 0.275510
-0.948980 -0.275510 0.336735
-0.887755 -0.275510 -0.459184
-0.887755 -0.275510 -0.397959
-0.887755 -0.275510 -0.336735
-0.887755 -0.275510 -0.275510
-0.887755 -0.275510 -0.214286
-0.887755 -0.275510 0.214286
-0.887755 -0.275510 0.275510
-0.887755 -0.275510 0.336735
-0.887755 -0.275510 0.397959
-0.887755 -0.275510 0.459184
-0.826531 -0.275510 -0.581633
-0.826531 -0.275510 -0.520408
-0.826531 -0.275510 -0.459184
-0.826531 -0.275510 -0.397959
-0.826531 -0.275510 0.397959
-0.826531 -0.275510 0.459184
-0.826531 -0.275510 0.520408
-0.826531 -0.275510 0.581633
-0.765306 -0.275510 -0.642857
-0.765306 -0.275510 -0.581633
-0.765306 -0.275510 -0.520408
-0.765306 -0.275510 0.520408
-0.765306 -0.275510 0.581633
-0.765306 -0.275510 0.642857
-0.704082 -0.275510 -0.704082
-0.704082 -0.275510 -0.642857
-0.704082 -0.275510 -0.581633
-0.704082 -0.275510 0.581633
-0.704082 -0.275510 0.642857
-0.704082 -0.275510 0.704082
-0.642857 -0.275510 -0.765306
-0.642857 -0.275510 -0.704082
-0.642857 -0.275510 -0.642857
-0.642857 -0.275510 0.642857
-0.642857 -0.275510 0.704082
-0.642857 -0.275510 0.765306
-0.581633 -0.275510 -0.826531
-0.581633 -0.275510 -0.765306
-0.581633 -0.275510 -0.704082
-0.581633 -0.275510 0.704082
-0.581633 -0.275510 0.765306
-0.581633 -0.275510 0.826531
-0.520408 -0.275510 -0.826531
-0.520408 -0.275510 -0.765306
-0.520408 -0.275510 0.765306
-0.520408 -0.275510 0.826531
-0.459184 -0.275510 -0.887755
-0.459184 -0.275510 -0.826531
-0.459184 -0.275510 0.826531
-0.459184 -0.275510 0.887755
-0.397959 -0.275510 -0.887755
-0.397959 -0.275510 -0.826531
-0.397959 -0.275510 0.826531
-0.397959 -0.275510 0.887755
-0.336735 -0.275510 -0.948980
-0.336735 -0.275510 -0.887755
-0.336735 -0.275510 0.887755
-0.336735 -0.275510 0.948980
-0.275510 -0.275510 -0.948980
-0.275510 -0.275510 -0.887755
-0.275510 -0.275510 0.887755
-0.275510 -0.275510 0.948980
-0.214286 -0.275510 -0.948980
-0.214286 -0.275510 -0.887755
-0.214286 -0.275510 0.887755
-0.214286 -0.275510 0.948980
-0.153061 -0.275510 -0.948980
-0.153061 -0.275510 0.948980
-0.091837 -0.275510 -0.948980
-0.091837 -0.275510 0.948980
-0.030612 -0.275510 -1.010204
-0.030612 -0.275510 -0.948980
-0.030612 -0.275510 0.948980
-0.030612 -0.275510 1.010204
0.030612 -0.275510 -1.010204
0.030612 -0.275510 -0.948980
0.030612 -0.275510 0.948980
0.030612 -0.275510 1.010204
0.091837 -0.275510 -0.948980
0.091837 -0.275510 0.948980
0.153061 -0.275510 -0.948980
0.153061 -0.275510 0.948980
0.214286 -0.275510 -0.948980
0.214286 -0.275510 -0.887755
0.214286 -0.275510 0.887755
0.214286 -0.275510 0.948980
0.275510 -0.275510 -0.948980
0.275510 -0.275510 -0.887755
0.275510 -0.275510 0.887755
0.275510 -0.275510 0.948980
0.336735 -0.275510 -0.948980
0.336735 -0.275510 -0.887755
0.336735 -0.275510 0.887755
0.336735 -0.275510 0.948980
0.397959 -0.275510 -0.887755
0.397959 -0.275510 -0.826531
0.397959 -0.275510 0.826531
0.397959 -0.275510 0.887755
0.459184 -0.275510 -0.887755
0.459184 -0.275510 -0.826531
0.459184 -0.275510 0.826531
0.459184 -0.275510 0.887755
0.520408 -0.275510 -0.826531
0.520408 -0.275510 -0.765306
0.520408 -0.275510 0.765306
0.520408 -0.275510 0.826531
0.581633 -0.275510 -0.826531
0.581633 -0.275510 -0.765306
0.581633 -0.275510 -0.704082
0.581633 -0.275510 0.704082
0.581633 -0.275510 0.765306
0.581633 -0.275510 0.826531
0.642857 -0.275510 -0.765306
0.642857 -0.275510 -0.704082
0.642857 -0.275510 -0.642857
0.642857 -0.275510 0.642857
0.642857 -0.275510 0.704082
0.642857 -0.275510 0.765306
0.704082 -0.275510 -0.704082
0.704082 -0.275510 -0.642857
0.704082 -0.275510 -0.581633
0.704082 -0.275510 0.581633
0.704082 -0.275510 0.642857
0.704082 -0.275510 0.704082
0.765306 -0.275510 -0.642857
0.765306 -0.275510 -0.581633
0.765306 -0.275510 -0.520408
0.765306 -0.275510 0.520408
0.765306 -0.275510 0.581633
0.765306 -0.275510 0.642857
0.826531 -0.275510 -0.581633
0.826531 -0.275510 -0.520408
0.826531 -0.275510 -0.459184
0.826531 -0.275510 -0.397959
0.826531 -0.275510 0.397959
0.826531 -0.275510 0.459184
0.826531 -0.275510 0.520408
0.826531 -0.275510 0.581633
0.887755 -0.275510 -0.459184
0.887755 -0.275510 -0.397959
0.887755 -0.275510 -0.336735
0.887755 -0.275510 -0.275510
0.887755 -0.275510 -0.214286
0.887755 -0.275510 0.214286
0.887755 -0.275510 0.275510
0.887755 -0.275510 0.336735
0.887755 -0.275510 0.397959
0.887755 -0.275510 0.459184
0.948980 -0.275510 -0.336735
0.948980 -0.275510 -0.275510
0.948980 -0.275510 -0.214286
0.948980 -0.275510 -0.153061
0.948980 -0.275510 -0.091837
0.948980 -0.275510 -0.030612
0.948980 -0.275510 0.030612
0.948980 -0.275510 0.091837
0.948980 -0.275510 0.153061
0.948980 -0.275510 0.214286
0.948980 -0.275510 0.275510
0.948980 -0.275510 0.336735
1.010204 -0.275510 -0.030612
1.010204 -0.275510 0.030612
-1.010204 -0.214286 -0.153061
-1.010204 -0.214286 -0.091837
-1.010204 -0.214286 -0.030612
-1.010204 -0.214286 0.030612
-1.010204 -0.214286 0.091837
-1.010204 -0.214286 0.153061
-0.948980 -0.214286 -0.336735
-0.948980 -0.214286 -0.275510
-0.948980 -0.214286 -0.214286
-0.948980 -0.214286 -0.153061
-0.948980 -0.214286 -0.091837
-0.948980 -0.214286 -0.030612
-0.948980 -0.214286 0.030612
-0.948980 -0.214286 0.091837
-0.948980 -0.214286 0.153061
-0.948980 -0.214286 0.214286
-0.948980 -0.214286 0.275510
-0.948980 -0.214286 0.336735
-0.887755 -0.214286 -0.459184
-0.887755 -0.214286 -0.397959
-0.887755 -0.214286 -0.336735
-0.887755 -0.214286 -0.275510
-0.887755 -0.214286 0.275510
-0.887755 -0.214286 0.336735
-0.887755 -0.214286 0.397959
-0.887755 -0.214286 0.459184
-0.826531 -0.214286 -0.581633
-0.826531 -0.214286 -0.520408
-0.826531 -0.214286 -0.459184
-0.826531 -0.214286 0.459184
-0.826531 -0.214286 0.520408
-0.826531 -0.214286 0.581633
-0.765306 -0.214286 -0.642857
-0.765306 -0.214286 -0.581633
-0.765306 -0.214286 -0.520408
-0.765306 -0.214286 0.520408
-0.765306 -0.214286 0.581633
-0.765306 -0.214286 0.642857
-0.704082 -0.214286 -0.704082
-0.704082 -0.214286 -0.642857
-0.704082 -0.214286 0.642857
-0.704082 -0.214286 0.704082
-0.642857 -0.214286 -0.765306
-0.642857 -0.214286 -0.704082
-0.642857 -0.214286 0.704082
-0.642857 -0.214286 0.765306
-0.581633 -0.214286 -0.826531
-0.581633 -0.214286 -0.765306
-0.581633 -0.214286 0.765306
-0.581633 -0.214286 0.826531
-0.520408 -0.214286 -0.826531
-0.520408 -0.214286 -0.765306
-0.520408 -0.214286 0.765306
-0.520408 -0.214286 0.826531
-0.459184 -0.214286 -0.887755
-0.459184 -0.214286 -0.826531
-0.459184 -0.214286 0.826531
-0.459184 -0.214286 0.887755
-0.397959 -0.214286 -0.887755
-0.397959 -0.214286 0.887755
-0.336735 -0.214286 -0.948980
-0.336735 -0.214286 -0.887755
-0.336735 -0.214286 0.887755
-0.336735 -0.214286 0.948980
-0.275510 -0.214286 -0.948980
-0.275510 -0.214286 -0.887755
-0.275510 -0.214286 0.887755
-0.275510 -0.214286 0.948980
-0.214286 -0.214286 -0.948980
-0.214286 -0.214286 0.948980
-0.153061 -0.214286 -1.010204
-0.153061 -0.214286 -0.948980
-0.153061 -0.214286 0.948980
-0.153061 -0.214286 1.010204
-0.091837 -0.214286 -1.010204
-0.091837 -0.214286 -0.948980
-0.091837 -0.214286 0.948980
-0.091837 -0.214286 1.010204
-0.030612 -0.214286 -1.010204
-0.030612 -0.214286 -0.948980
-0.030612 -0.214286 0.948980
-0.030612 -0.214286 1.010204
0.030612 -0.214286 -1.010204
0.030612 -0.214286 -0.948980
0.030612 -0.214286 0.948980
0.030612 -0.214286 1.010204
0.091837 -0.214286 -1.010204
0.091837 -0.214286 -0.948980
0.091837 -0.214286 0.948980
0.091837 -0.214286 1.010204
0.153061 -0.214286 -1.010204
0.153061 -0.214286 -0.948980
0.153061 -0.214286 0.948980
0.153061 -0.214286 1.010204
0.214286 -0.214286 -0.948980
0.214286 -0.214286 0.948980
0.275510 -0.214286 -0.948980
0.275510 -0.214286 -0.887755
0.275510 -0.214286 0.887755
0.275510 -0.214286 0.948980
0.336735 -0.214286 -0.948980
0.336735 -0.214286 -0.887755
0.336735 -0.214286 0.887755
0.336735 -0.214286 0.948980
0.397959 -0.214286 -0.887755
0.397959 -0.214286 0.887755
0.459184 -0.214286 -0.887755
0.459184 -0.214286 -0.826531
0.459184 -0.214286 0.826531
0.459184 -0.214286 0.887755
0.520408 -0.214286 -0.826531
0.520408 -0.214286 -0.765306
0.520408 -0.214286 0.765306
0.520408 -0.214286 0.826531
0.581633 -0.214286 -0.826531
0.581633 -0.214286 -0.765306
0.581633 -0.214286 0.765306
0.581633 -0.214286 0.826531
0.642857 -0.214286 -0.765306
0.642857 -0.214286 -0.704082
0.642857 -0.214286 0.704082
0.642857 -0.214286 0.765306
0.704082 -0.214286 -0.704082
0.704082 -0.214286 -0.642857
0.704082 -0.214286 0.642857
0.704082 -0.214286 0.704082
0.765306 -0.214286 -0.642857
0.765306 -0.214286 -0.581633
0.765306 -0.214286 -0.520408
0.765306 -0.214286 0.520408
0.765306 -0.214286 0.581633
0.765306 -0.214286 0.642857
0.826531 -0.214286 -0.581633
0.826531 -0.214286 -0.520408
0.826531 -0.214286 -0.459184
0.826531 -0.214286 0.459184
0.826531 -0.214286 0.520408
0.826531 -0.214286 0.581633
0.887755 -0.214286 -0.459184
0.887755 -0.214286 -0.397959
0.887755 -0.214286 -0.336735
0.887755 -0.214286 -0.275510
0.887755 -0.214286 0.275510
0.887755 -0.214286 0.336735
0.887755 -0.214286 0.397959
0.887755 -0.214286 0.459184
0.948980 -0.214286 -0.336735
0.948980 -0.214286 -0.275510
0.948980 -0.214286 -0.214286
0.948980 -0.214286 -0.153061
0.948980 -0.214286 -0.091837
0.948980 -0.214286 -0.030612
0.948980 -0.214286 0.030612
0.948980 -0.214286 0.091837
0.948980 -0.214286 0.153061
0.948980 -0.214286 0.214286
0.948980 -0.214286 0.275510
0.948980 -0.214286 0.336735
1.010204 -0.214286 -0.153061
1.010204 -0.214286 -0.091837
1.010204 -0.214286 -0.030612
1.010204 -0.214286 0.030612
