39.5	107.25	18.538
39.75	107.25	18.62
40	107.25	18.709
40.25	107.25	18.831
40.5	107.25	18.924
40.75	107.25	19.024
41	107.25	19.142
41.25	107.25	19.246
41.5	107.25	19.364
41.75	107.25	19.476
42	107.25	19.559
42.25	107.25	19.593
42.5	107.25	19.635
22.75	107.5	19.785
23	107.5	19.723
23.25	107.5	19.657
23.5	107.5	19.566
23.75	107.5	19.473
24	107.5	19.368
24.25	107.5	19.22
24.5	107.5	19.123
24.75	107.5	18.999
25	107.5	18.897
25.25	107.5	18.787
25.5	107.5	18.698
25.75	107.5	18.642
26	107.5	18.631
26.25	107.5	18.633
26.5	107.5	18.649
26.75	107.5	18.646
27	107.5	18.652
27.25	107.5	18.65
27.5	107.5	18.638
27.75	107.5	18.615
28	107.5	18.601
28.25	107.5	18.545
28.5	107.5	18.503
28.75	107.5	18.459
29	107.5	18.401
29.25	107.5	18.353
29.5	107.5	18.328
29.75	107.5	18.326
30	107.5	18.336
30.25	107.5	18.317
30.5	107.5	18.29
30.75	107.5	18.215
31	107.5	18.128
31.25	107.5	18.074
31.5	107.5	18.022
31.75	107.5	18.002
32	107.5	17.981
32.25	107.5	17.957
32.5	107.5	17.938
32.75	107.5	17.922
33	107.5	17.89
33.25	107.5	17.853
33.5	107.5	17.853
33.75	107.5	17.834
34	107.5	17.802
34.25	107.5	17.797
34.5	107.5	17.803
34.75	107.5	17.805
35	107.5	17.808
35.25	107.5	17.8
35.5	107.5	17.805
35.75	107.5	17.784
36	107.5	17.763
36.25	107.5	17.725
36.5	107.5	17.698
36.75	107.5	17.642
37	107.5	17.583
37.25	107.5	17.605
37.5	107.5	17.71
37.75	107.5	17.815
38	107.5	17.916
38.25	107.5	18.014
38.5	107.5	18.114
38.75	107.5	18.243
39	107.5	18.352
39.25	107.5	18.456
39.5	107.5	18.55
39.75	107.5	18.628
40	107.5	18.74
40.25	107.5	18.838
40.5	107.5	18.935
40.75	107.5	19.053
41	107.5	19.172
41.25	107.5	19.279
41.5	107.5	19.391
41.75	107.5	19.455
42	107.5	19.521
42.25	107.5	19.618
42.5	107.5	19.616
23	107.75	19.736
23.25	107.75	19.655
23.5	107.75	19.55
23.75	107.75	19.455
24	107.75	19.328
24.25	107.75	19.222
24.5	107.75	19.09
24.75	107.75	19.003
25	107.75	18.864
25.25	107.75	18.774
25.5	107.75	18.67
25.75	107.75	18.625
26	107.75	18.636
26.25	107.75	18.629
26.5	107.75	18.644
26.75	107.75	18.653
27	107.75	18.659
27.25	107.75	18.667
27.5	107.75	18.652
27.75	107.75	18.642
28	107.75	18.631
28.25	107.75	18.596
28.5	107.75	18.543
28.75	107.75	18.499
29	107.75	18.428
29.25	107.75	18.366
29.5	107.75	18.348
29.75	107.75	18.331
30	107.75	18.326
30.25	107.75	18.323
30.5	107.75	18.275
30.75	107.75	18.211
31	107.75	18.112
31.25	107.75	18.06
31.5	107.75	18.038
31.75	107.75	18.015
32	107.75	17.988
32.25	107.75	17.959
32.5	107.75	17.947
32.75	107.75	17.921
33	107.75	17.907
33.25	107.75	17.878
33.5	107.75	17.854
33.75	107.75	17.836
34	107.75	17.815
34.25	107.75	17.82
34.5	107.75	17.812
34.75	107.75	17.816
35	107.75	17.815
35.25	107.75	17.805
35.5	107.75	17.803
35.75	107.75	17.79
36	107.75	17.772
36.25	107.75	17.748
36.5	107.75	17.716
36.75	107.75	17.661
37	107.75	17.611
37.25	107.75	17.649
37.5	107.75	17.741
37.75	107.75	17.836
38	107.75	17.94
38.25	107.75	18.046
38.5	107.75	18.149
38.75	107.75	18.248
39	107.75	18.382
39.25	107.75	18.473
39.5	107.75	18.564
39.75	107.75	18.663
40	107.75	18.762
40.25	107.75	18.866
40.5	107.75	18.947
40.75	107.75	19.076
41	107.75	19.154
41.25	107.75	19.27
41.5	107.75	19.417
41.75	107.75	19.471
42	107.75	19.546
22.75	108	19.787
23	108	19.7
23.25	108	19.606
23.5	108	19.504
23.75	108	19.379
24	108	19.283
24.25	108	19.187
24.5	108	19.087
24.75	108	18.968
25	108	18.859
25.25	108	18.749
25.5	108	18.664
25.75	108	18.617
26	108	18.613
26.25	108	18.625
26.5	108	18.647
26.75	108	18.658
27	108	18.664
27.25	108	18.658
27.5	108	18.657
27.75	108	18.652
28	108	18.64
28.25	108	18.61
28.5	108	18.582
28.75	108	18.538
29	108	18.493
29.25	108	18.404
29.5	108	18.361
29.75	108	18.343
30	108	18.344
30.25	108	18.324
30.5	108	18.266
30.75	108	18.193
31	108	18.077
31.25	108	18.046
31.5	108	18.023
31.75	108	17.992
32	108	17.967
32.25	108	17.956
32.5	108	17.937
32.75	108	17.927
33	108	17.903
33.25	108	17.892
33.5	108	17.871
33.75	108	17.851
34	108	17.848
34.25	108	17.834
34.5	108	17.83
34.75	108	17.829
35	108	17.819
35.25	108	17.799
35.5	108	17.801
35.75	108	17.791
36	108	17.772
36.25	108	17.753
36.5	108	17.721
36.75	108	17.668
37	108	17.642
37.25	108	17.678
37.5	108	17.79
37.75	108	17.868
38	108	17.963
38.25	108	18.083
38.5	108	18.186
38.75	108	18.282
39	108	18.397
39.25	108	18.512
39.5	108	18.585
39.75	108	18.693
40	108	18.785
40.25	108	18.884
40.5	108	18.986
40.75	108	19.085
41	108	19.238
41.25	108	19.281
41.5	108	19.392
41.75	108	19.454
42	108	19.518
22.75	108.25	19.693
23	108.25	19.673
23.25	108.25	19.568
23.5	108.25	19.472
23.75	108.25	19.362
24	108.25	19.266
24.25	108.25	19.165
24.5	108.25	19.046
24.75	108.25	18.939
25	108.25	18.824
25.25	108.25	18.731
25.5	108.25	18.653
25.75	108.25	18.59
26	108.25	18.605
26.25	108.25	18.628
26.5	108.25	18.64
26.75	108.25	18.664
27	108.25	18.665
27.25	108.25	18.662
27.5	108.25	18.653
27.75	108.25	18.664
28	108.25	18.644
28.25	108.25	18.617
28.5	108.25	18.586
28.75	108.25	18.563
29	108.25	18.518
29.25	108.25	18.452
29.5	108.25	18.381
29.75	108.25	18.355
30	108.25	18.335
30.25	108.25	18.302
30.5	108.25	18.248
30.75	108.25	18.162
31	108.25	18.076
31.25	108.25	18.044
31.5	108.25	18.022
31.75	108.25	18.005
32	108.25	17.97
32.25	108.25	17.956
32.5	108.25	17.938
32.75	108.25	17.922
33	108.25	17.91
33.25	108.25	17.876
33.5	108.25	17.863
33.75	108.25	17.865
34	108.25	17.873
34.25	108.25	17.862
34.5	108.25	17.841
34.75	108.25	17.838
35	108.25	17.829
35.25	108.25	17.805
35.5	108.25	17.816
35.75	108.25	17.786
36	108.25	17.767
36.25	108.25	17.756
36.5	108.25	17.689
36.75	108.25	17.662
37	108.25	17.639
37.25	108.25	17.689
37.5	108.25	17.785
37.75	108.25	17.899
38	108.25	17.992
38.25	108.25	18.1
38.5	108.25	18.198
38.75	108.25	18.312
39	108.25	18.416
39.25	108.25	18.519
39.5	108.25	18.6
39.75	108.25	18.695
40	108.25	18.816
40.25	108.25	18.905
40.5	108.25	19.012
40.75	108.25	19.123
41	108.25	19.226
41.25	108.25	19.309
41.5	108.25	19.407
41.75	108.25	19.518
22.75	108.5	19.705
23	108.5	19.636
23.25	108.5	19.554
23.5	108.5	19.424
23.75	108.5	19.319
24	108.5	19.218
24.25	108.5	19.136
24.5	108.5	19.007
24.75	108.5	18.914
25	108.5	18.812
25.25	108.5	18.725
25.5	108.5	18.633
25.75	108.5	18.59
26	108.5	18.603
26.25	108.5	18.624
26.5	108.5	18.643
26.75	108.5	18.665
27	108.5	18.671
27.25	108.5	18.659
27.5	108.5	18.656
27.75	108.5	18.651
28	108.5	18.632
28.25	108.5	18.619
28.5	108.5	18.591
28.75	108.5	18.571
29	108.5	18.532
29.25	108.5	18.469
29.5	108.5	18.412
29.75	108.5	18.363
30	108.5	18.343
30.25	108.5	18.31
30.5	108.5	18.222
30.75	108.5	18.149
31	108.5	18.082
31.25	108.5	18.051
31.5	108.5	18.029
31.75	108.5	18.011
32	108.5	17.979
32.25	108.5	17.944
32.5	108.5	17.934
32.75	108.5	17.918
33	108.5	17.903
33.25	108.5	17.878
33.5	108.5	17.876
33.75	108.5	17.892
34	108.5	17.879
34.25	108.5	17.863
34.5	108.5	17.851
34.75	108.5	17.838
35	108.5	17.835
35.25	108.5	17.839
35.5	108.5	17.828
35.75	108.5	17.796
36	108.5	17.778
36.25	108.5	17.759
36.5	108.5	17.695
36.75	108.5	17.657
37	108.5	17.647
37.25	108.5	17.721
37.5	108.5	17.823
37.75	108.5	17.925
38	108.5	18.031
38.25	108.5	18.127
38.5	108.5	18.242
38.75	108.5	18.327
39	108.5	18.429
39.25	108.5	18.528
39.5	108.5	18.618
39.75	108.5	18.724
40	108.5	18.814
40.25	108.5	18.919
40.5	108.5	19.025
40.75	108.5	19.15
41	108.5	19.254
41.25	108.5	19.402
41.5	108.5	19.429
41.75	108.5	19.488
22.75	108.75	19.683
23	108.75	19.63
23.25	108.75	19.506
23.5	108.75	19.383
23.75	108.75	19.292
24	108.75	19.193
24.25	108.75	19.104
24.5	108.75	18.989
24.75	108.75	18.879
25	108.75	18.79
25.25	108.75	18.699
25.5	108.75	18.631
25.75	108.75	18.587
26	108.75	18.619
26.25	108.75	18.632
26.5	108.75	18.64
26.75	108.75	18.668
27	108.75	18.652
27.25	108.75	18.655
27.5	108.75	18.651
27.75	108.75	18.641
28	108.75	18.628
28.25	108.75	18.622
28.5	108.75	18.6
28.75	108.75	18.586
29	108.75	18.545
29.25	108.75	18.5
29.5	108.75	18.427
29.75	108.75	18.372
30	108.75	18.333
30.25	108.75	18.285
30.5	108.75	18.208
30.75	108.75	18.123
31	108.75	18.08
31.25	108.75	18.068
31.5	108.75	18.044
31.75	108.75	18.022
32	108.75	17.988
32.25	108.75	17.942
32.5	108.75	17.94
32.75	108.75	17.929
33	108.75	17.919
33.25	108.75	17.916
33.5	108.75	17.92
33.75	108.75	17.891
34	108.75	17.875
34.25	108.75	17.862
34.5	108.75	17.841
34.75	108.75	17.847
35	108.75	17.848
35.25	108.75	17.846
35.5	108.75	17.822
35.75	108.75	17.799
36	108.75	17.772
36.25	108.75	17.741
36.5	108.75	17.691
36.75	108.75	17.65
37	108.75	17.666
37.25	108.75	17.75
37.5	108.75	17.853
37.75	108.75	17.96
38	108.75	18.075
38.25	108.75	18.168
38.5	108.75	18.252
38.75	108.75	18.352
39	108.75	18.446
39.25	108.75	18.538
39.5	108.75	18.648
39.75	108.75	18.738
40	108.75	18.838
40.25	108.75	18.94
40.5	108.75	19.068
40.75	108.75	19.137
41	108.75	19.283
41.25	108.75	19.4
41.5	108.75	19.388
22.75	109	19.695
23	109	19.6
23.25	109	19.488
23.5	109	19.354
23.75	109	19.266
24	109	19.175
24.25	109	19.079
24.5	109	18.978
24.75	109	18.869
25	109	18.775
25.25	109	18.68
25.5	109	18.6
25.75	109	18.605
26	109	18.615
26.25	109	18.626
26.5	109	18.651
26.75	109	18.652
27	109	18.645
27.25	109	18.649
27.5	109	18.649
27.75	109	18.647
28	109	18.631
28.25	109	18.609
28.5	109	18.599
28.75	109	18.591
29	109	18.557
29.25	109	18.514
29.5	109	18.455
29.75	109	18.389
30	109	18.34
30.25	109	18.279
30.5	109	18.195
30.75	109	18.139
31	109	18.059
31.25	109	18.047
31.5	109	18.048
31.75	109	18.023
32	109	18.004
32.25	109	17.97
32.5	109	17.953
32.75	109	17.93
33	109	17.933
33.25	109	17.927
33.5	109	17.909
33.75	109	17.896
34	109	17.88
34.25	109	17.859
34.5	109	17.85
34.75	109	17.848
35	109	17.85
35.25	109	17.833
35.5	109	17.823
35.75	109	17.787
36	109	17.769
36.25	109	17.74
36.5	109	17.69
36.75	109	17.641
37	109	17.687
37.25	109	17.777
37.5	109	17.875
37.75	109	17.996
38	109	18.094
38.25	109	18.182
38.5	109	18.274
38.75	109	18.367
39	109	18.464
39.25	109	18.567
39.5	109	18.663
39.75	109	18.769
40	109	18.877
40.25	109	18.956
40.5	109	19.083
40.75	109	19.213
41	109	19.286
41.25	109	19.377
22.75	109.25	19.671
23	109.25	19.566
23.25	109.25	19.453
23.5	109.25	19.326
23.75	109.25	19.242
24	109.25	19.157
24.25	109.25	19.055
24.5	109.25	18.945
24.75	109.25	18.854
25	109.25	18.76
25.25	109.25	18.669
25.5	109.25	18.607
25.75	109.25	18.592
26	109.25	18.621
26.25	109.25	18.618
26.5	109.25	18.647
26.75	109.25	18.65
27	109.25	18.641
27.25	109.25	18.634
27.5	109.25	18.636
27.75	109.25	18.629
28	109.25	18.62
28.25	109.25	18.607
28.5	109.25	18.601
28.75	109.25	18.57
29	109.25	18.541
29.25	109.25	18.51
29.5	109.25	18.461
29.75	109.25	18.399
30	109.25	18.322
30.25	109.25	18.256
30.5	109.25	18.174
30.75	109.25	18.135
31	109.25	18.078
31.25	109.25	18.064
31.5	109.25	18.053
31.75	109.25	18.049
32	109.25	18.021
32.25	109.25	17.998
32.5	109.25	17.967
32.75	109.25	17.945
33	109.25	17.938
33.25	109.25	17.934
33.5	109.25	17.914
33.75	109.25	17.904
34	109.25	17.876
34.25	109.25	17.853
34.5	109.25	17.841
34.75	109.25	17.842
35	109.25	17.834
35.25	109.25	17.826
35.5	109.25	17.804
35.75	109.25	17.794
36	109.25	17.762
36.25	109.25	17.751
36.5	109.25	17.687
36.75	109.25	17.654
37	109.25	17.694
37.25	109.25	17.802
37.5	109.25	17.92
37.75	109.25	18.013
38	109.25	18.129
38.25	109.25	18.217
38.5	109.25	18.303
38.75	109.25	18.393
39	109.25	18.486
39.25	109.25	18.605
39.5	109.25	18.693
39.75	109.25	18.804
40	109.25	18.889
40.25	109.25	18.988
40.5	109.25	19.098
40.75	109.25	19.223
41	109.25	19.302
41.25	109.25	19.415
41.5	109.25	19.578
42	109.25	19.757
22.75	109.5	19.637
23	109.5	19.533
23.25	109.5	19.441
23.5	109.5	19.347
23.75	109.5	19.226
24	109.5	19.131
24.25	109.5	19.025
24.5	109.5	18.941
24.75	109.5	18.85
25	109.5	18.758
25.25	109.5	18.671
25.5	109.5	18.605
25.75	109.5	18.607
26	109.5	18.612
26.25	109.5	18.618
26.5	109.5	18.637
26.75	109.5	18.64
27	109.5	18.622
27.25	109.5	18.611
27.5	109.5	18.628
27.75	109.5	18.613
28	109.5	18.604
28.25	109.5	18.601
28.5	109.5	18.588
28.75	109.5	18.563
29	109.5	18.526
29.25	109.5	18.5
29.5	109.5	18.463
29.75	109.5	18.411
30	109.5	18.314
30.25	109.5	18.261
30.5	109.5	18.183
30.75	109.5	18.158
31	109.5	18.114
31.25	109.5	18.068
31.5	109.5	18.08
31.75	109.5	18.061
32	109.5	18.029
32.25	109.5	18.011
32.5	109.5	17.999
32.75	109.5	17.961
33	109.5	17.931
33.25	109.5	17.912
33.5	109.5	17.908
33.75	109.5	17.901
34	109.5	17.893
34.25	109.5	17.858
34.5	109.5	17.837
34.75	109.5	17.835
35	109.5	17.843
35.25	109.5	17.82
35.5	109.5	17.81
35.75	109.5	17.797
36	109.5	17.762
36.25	109.5	17.748
36.5	109.5	17.717
36.75	109.5	17.672
37	109.5	17.723
37.25	109.5	17.829
37.5	109.5	17.94
37.75	109.5	18.036
38	109.5	18.128
38.25	109.5	18.234
38.5	109.5	18.328
38.75	109.5	18.417
39	109.5	18.52
39.25	109.5	18.611
39.5	109.5	18.73
39.75	109.5	18.819
40	109.5	18.912
40.25	109.5	18.996
40.5	109.5	19.116
40.75	109.5	19.241
41	109.5	19.307
41.25	109.5	19.485
41.5	109.5	19.525
41.75	109.5	19.742
42	109.5	19.75
22.5	109.75	19.733
22.75	109.75	19.646
23	109.75	19.528
23.25	109.75	19.43
23.5	109.75	19.301
23.75	109.75	19.215
24	109.75	19.13
24.25	109.75	19.017
24.5	109.75	18.919
24.75	109.75	18.82
25	109.75	18.748
25.25	109.75	18.651
25.5	109.75	18.587
25.75	109.75	18.586
26	109.75	18.607
26.25	109.75	18.629
26.5	109.75	18.637
26.75	109.75	18.631
27	109.75	18.616
27.25	109.75	18.605
27.5	109.75	18.605
27.75	109.75	18.599
28	109.75	18.593
28.25	109.75	18.595
28.5	109.75	18.581
28.75	109.75	18.553
29	109.75	18.52
29.25	109.75	18.495
29.5	109.75	18.471
29.75	109.75	18.399
30	109.75	18.339
30.25	109.75	18.253
30.5	109.75	18.195
30.75	109.75	18.159
31	109.75	18.129
31.25	109.75	18.104
31.5	109.75	18.087
31.75	109.75	18.069
32	109.75	18.045
32.25	109.75	18.031
32.5	109.75	18.015
32.75	109.75	17.98
33	109.75	17.937
33.25	109.75	17.922
33.5	109.75	17.919
33.75	109.75	17.904
34	109.75	17.886
34.25	109.75	17.853
34.5	109.75	17.821
34.75	109.75	17.829
35	109.75	17.822
35.25	109.75	17.808
35.5	109.75	17.812
35.75	109.75	17.799
36	109.75	17.779
36.25	109.75	17.761
36.5	109.75	17.724
36.75	109.75	17.698
37	109.75	17.758
37.25	109.75	17.841
37.5	109.75	17.952
37.75	109.75	18.058
38	109.75	18.146
38.25	109.75	18.241
38.5	109.75	18.36
38.75	109.75	18.453
39	109.75	18.549
39.25	109.75	18.613
39.5	109.75	18.743
39.75	109.75	18.83
40	109.75	18.921
40.25	109.75	19.004
40.5	109.75	19.145
40.75	109.75	19.221
41	109.75	19.373
41.25	109.75	19.555
41.5	109.75	19.574
41.75	109.75	19.627
42	109.75	19.709
22.5	110	19.736
22.75	110	19.645
23	110	19.524
23.25	110	19.421
23.5	110	19.314
23.75	110	19.21
24	110	19.121
24.25	110	19.022
24.5	110	18.921
24.75	110	18.813
25	110	18.73
25.25	110	18.621
25.5	110	18.57
25.75	110	18.591
26	110	18.607
26.25	110	18.629
26.5	110	18.614
26.75	110	18.618
27	110	18.606
27.25	110	18.593
27.5	110	18.587
27.75	110	18.591
28	110	18.586
28.25	110	18.581
28.5	110	18.574
28.75	110	18.552
29	110	18.521
29.25	110	18.502
29.5	110	18.464
29.75	110	18.428
30	110	18.344
30.25	110	18.286
30.5	110	18.209
30.75	110	18.161
31	110	18.134
31.25	110	18.118
31.5	110	18.09
31.75	110	18.074
32	110	18.069
32.25	110	18.035
32.5	110	18.017
32.75	110	17.998
33	110	17.959
33.25	110	17.929
33.5	110	17.935
33.75	110	17.921
34	110	17.9
34.25	110	17.865
34.5	110	17.834
34.75	110	17.819
35	110	17.818
35.25	110	17.791
35.5	110	17.793
35.75	110	17.797
36	110	17.763
36.25	110	17.74
36.5	110	17.738
36.75	110	17.717
37	110	17.775
37.25	110	17.86
37.5	110	17.971
37.75	110	18.107
38	110	18.177
38.25	110	18.268
38.5	110	18.355
38.75	110	18.477
39	110	18.574
39.25	110	18.654
39.5	110	18.751
39.75	110	18.862
40	110	18.935
40.25	110	19.028
40.5	110	19.145
40.75	110	19.255
41	110	19.426
41.25	110	19.567
41.5	110	19.597
41.75	110	19.627
42	110	19.741
22.25	110.25	19.813
22.5	110.25	19.737
22.75	110.25	19.63
23	110.25	19.509
23.25	110.25	19.399
23.5	110.25	19.288
23.75	110.25	19.2
24	110.25	19.098
24.25	110.25	19.008
24.5	110.25	18.901
24.75	110.25	18.803
25	110.25	18.724
25.25	110.25	18.613
25.5	110.25	18.556
25.75	110.25	18.581
26	110.25	18.604
26.25	110.25	18.603
26.5	110.25	18.616
26.75	110.25	18.624
27	110.25	18.605
27.25	110.25	18.586
27.5	110.25	18.572
27.75	110.25	18.574
28	110.25	18.575
28.25	110.25	18.579
28.5	110.25	18.567
28.75	110.25	18.54
29	110.25	18.523
29.25	110.25	18.502
29.5	110.25	18.475
29.75	110.25	18.436
30	110.25	18.361
30.25	110.25	18.285
30.5	110.25	18.2
30.75	110.25	18.156
31	110.25	18.124
31.25	110.25	18.105
31.5	110.25	18.095
31.75	110.25	18.096
32	110.25	18.074
32.25	110.25	18.027
32.5	110.25	18.004
32.75	110.25	17.986
33	110.25	17.967
33.25	110.25	17.947
33.5	110.25	17.949
33.75	110.25	17.936
34	110.25	17.901
34.25	110.25	17.881
34.5	110.25	17.838
34.75	110.25	17.835
35	110.25	17.825
35.25	110.25	17.81
35.5	110.25	17.793
35.75	110.25	17.795
36	110.25	17.781
36.25	110.25	17.746
36.5	110.25	17.73
36.75	110.25	17.716
37	110.25	17.799
37.25	110.25	17.905
37.5	110.25	18.003
37.75	110.25	18.124
38	110.25	18.213
38.25	110.25	18.289
38.5	110.25	18.392
38.75	110.25	18.502
39	110.25	18.606
39.25	110.25	18.676
39.5	110.25	18.771
39.75	110.25	18.869
40	110.25	18.956
40.25	110.25	19.042
40.5	110.25	19.179
40.75	110.25	19.323
41	110.25	19.397
41.25	110.25	19.556
41.5	110.25	19.571
41.75	110.25	19.626
42	110.25	19.769
22	110.5	19.787
22.25	110.5	19.804
22.5	110.5	19.713
22.75	110.5	19.621
23	110.5	19.498
23.25	110.5	19.397
23.5	110.5	19.269
23.75	110.5	19.174
24	110.5	19.084
24.25	110.5	18.981
24.5	110.5	18.879
24.75	110.5	18.78
25	110.5	18.686
25.25	110.5	18.596
25.5	110.5	18.555
25.75	110.5	18.566
26	110.5	18.585
26.25	110.5	18.608
26.5	110.5	18.615
26.75	110.5	18.606
27	110.5	18.589
27.25	110.5	18.577
27.5	110.5	18.569
27.75	110.5	18.564
28	110.5	18.564
28.25	110.5	18.568
28.5	110.5	18.556
28.75	110.5	18.534
29	110.5	18.521
29.25	110.5	18.495
29.5	110.5	18.481
29.75	110.5	18.441
30	110.5	18.365
30.25	110.5	18.308
30.5	110.5	18.222
30.75	110.5	18.167
31	110.5	18.125
31.25	110.5	18.099
31.5	110.5	18.1
31.75	110.5	18.103
32	110.5	18.08
32.25	110.5	18.038
32.5	110.5	18.002
32.75	110.5	17.994
33	110.5	17.974
33.25	110.5	17.952
33.5	110.5	17.944
33.75	110.5	17.908
34	110.5	17.884
34.25	110.5	17.862
34.5	110.5	17.84
34.75	110.5	17.82
35	110.5	17.81
35.25	110.5	17.801
35.5	110.5	17.792
35.75	110.5	17.784
36	110.5	17.758
36.25	110.5	17.747
36.5	110.5	17.725
36.75	110.5	17.732
37	110.5	17.807
37.25	110.5	17.917
37.5	110.5	18.018
37.75	110.5	18.124
38	110.5	18.238
38.25	110.5	18.32
38.5	110.5	18.406
38.75	110.5	18.505
39	110.5	18.597
39.25	110.5	18.702
39.5	110.5	18.788
39.75	110.5	18.883
40	110.5	18.969
40.25	110.5	19.076
40.5	110.5	19.211
40.75	110.5	19.32
41	110.5	19.41
41.25	110.5	19.599
41.5	110.5	19.644
41.75	110.5	19.667
22.25	110.75	19.769
22.5	110.75	19.695
22.75	110.75	19.58
23	110.75	19.482
23.25	110.75	19.375
23.5	110.75	19.274
23.75	110.75	19.168
24	110.75	19.056
24.25	110.75	18.966
24.5	110.75	18.847
24.75	110.75	18.755
25	110.75	18.656
25.25	110.75	18.591
25.5	110.75	18.546
25.75	110.75	18.565
26	110.75	18.582
26.25	110.75	18.586
26.5	110.75	18.595
26.75	110.75	18.591
27	110.75	18.572
27.25	110.75	18.551
27.5	110.75	18.557
27.75	110.75	18.561
28	110.75	18.562
28.25	110.75	18.55
28.5	110.75	18.546
28.75	110.75	18.528
29	110.75	18.505
29.25	110.75	18.499
29.5	110.75	18.483
29.75	110.75	18.444
30	110.75	18.383
30.25	110.75	18.321
30.5	110.75	18.259
30.75	110.75	18.192
31	110.75	18.139
31.25	110.75	18.105
31.5	110.75	18.114
31.75	110.75	18.107
32	110.75	18.073
32.25	110.75	18.037
32.5	110.75	18.006
32.75	110.75	17.996
33	110.75	17.979
33.25	110.75	17.96
33.5	110.75	17.929
33.75	110.75	17.904
34	110.75	17.871
34.25	110.75	17.861
34.5	110.75	17.84
34.75	110.75	17.811
35	110.75	17.797
35.25	110.75	17.796
35.5	110.75	17.801
35.75	110.75	17.779
36	110.75	17.756
36.25	110.75	17.735
36.5	110.75	17.733
36.75	110.75	17.764
37	110.75	17.84
37.25	110.75	17.956
37.5	110.75	18.046
37.75	110.75	18.153
38	110.75	18.258
38.25	110.75	18.337
38.5	110.75	18.392
38.75	110.75	18.52
39	110.75	18.608
39.25	110.75	18.716
39.5	110.75	18.826
39.75	110.75	18.903
40	110.75	18.995
40.25	110.75	19.084
40.5	110.75	19.228
40.75	110.75	19.348
41	110.75	19.444
41.25	110.75	19.578
41.5	110.75	19.675
41.75	110.75	19.734
22.25	111	19.769
22.5	111	19.652
22.75	111	19.563
23	111	19.453
23.25	111	19.356
23.5	111	19.234
23.75	111	19.148
24	111	19.042
24.25	111	18.943
24.5	111	18.819
24.75	111	18.722
25	111	18.629
25.25	111	18.564
25.5	111	18.545
25.75	111	18.551
26	111	18.584
26.25	111	18.581
26.5	111	18.574
26.75	111	18.569
27	111	18.56
27.25	111	18.544
27.5	111	18.548
27.75	111	18.559
28	111	18.55
28.25	111	18.546
28.5	111	18.541
28.75	111	18.523
29	111	18.515
29.25	111	18.502
29.5	111	18.482
29.75	111	18.451
30	111	18.408
30.25	111	18.34
30.5	111	18.28
30.75	111	18.232
31	111	18.168
31.25	111	18.136
31.5	111	18.12
31.75	111	18.104
32	111	18.079
32.25	111	18.04
32.5	111	18.026
32.75	111	17.992
33	111	17.978
33.25	111	17.955
33.5	111	17.917
33.75	111	17.903
34	111	17.879
34.25	111	17.858
34.5	111	17.839
34.75	111	17.803
35	111	17.796
35.25	111	17.785
35.5	111	17.792
35.75	111	17.778
36	111	17.742
36.25	111	17.736
36.5	111	17.74
36.75	111	17.776
37	111	17.857
37.25	111	17.959
37.5	111	18.071
37.75	111	18.16
38	111	18.244
38.25	111	18.336
38.5	111	18.417
38.75	111	18.538
39	111	18.627
39.25	111	18.73
39.5	111	18.83
39.75	111	18.928
40	111	19.027
40.25	111	19.141
40.5	111	19.248
40.75	111	19.352
41	111	19.455
41.25	111	19.613
41.5	111	19.743
41.75	111	19.769
22.25	111.25	19.738
22.5	111.25	19.658
22.75	111.25	19.553
23	111.25	19.46
23.25	111.25	19.341
23.5	111.25	19.236
23.75	111.25	19.137
24	111.25	19.023
24.25	111.25	18.918
24.5	111.25	18.82
24.75	111.25	18.698
25	111.25	18.611
25.25	111.25	18.541
25.5	111.25	18.527
25.75	111.25	18.563
26	111.25	18.578
26.25	111.25	18.572
26.5	111.25	18.57
26.75	111.25	18.572
27	111.25	18.558
27.25	111.25	18.539
27.5	111.25	18.536
27.75	111.25	18.538
28	111.25	18.537
28.25	111.25	18.539
28.5	111.25	18.524
28.75	111.25	18.517
29	111.25	18.513
29.25	111.25	18.501
29.5	111.25	18.484
29.75	111.25	18.456
30	111.25	18.402
30.25	111.25	18.341
30.5	111.25	18.298
30.75	111.25	18.24
31	111.25	18.188
31.25	111.25	18.155
31.5	111.25	18.14
31.75	111.25	18.133
32	111.25	18.104
32.25	111.25	18.063
32.5	111.25	18.033
32.75	111.25	18.008
33	111.25	17.979
33.25	111.25	17.945
33.5	111.25	17.912
33.75	111.25	17.894
34	111.25	17.877
34.25	111.25	17.863
34.5	111.25	17.846
34.75	111.25	17.829
35	111.25	17.81
35.25	111.25	17.787
35.5	111.25	17.779
35.75	111.25	17.758
36	111.25	17.746
36.25	111.25	17.75
36.5	111.25	17.749
36.75	111.25	17.793
37	111.25	17.869
37.25	111.25	17.991
37.5	111.25	18.085
37.75	111.25	18.186
38	111.25	18.272
38.25	111.25	18.369
38.5	111.25	18.468
38.75	111.25	18.561
39	111.25	18.65
39.25	111.25	18.756
39.5	111.25	18.849
39.75	111.25	18.963
40	111.25	19.071
40.25	111.25	19.185
40.5	111.25	19.285
40.75	111.25	19.368
41	111.25	19.547
41.25	111.25	19.654
41.5	111.25	19.722
41.75	111.25	19.657
22	111.5	19.795
22.25	111.5	19.719
22.5	111.5	19.632
22.75	111.5	19.539
23	111.5	19.434
23.25	111.5	19.339
23.5	111.5	19.216
23.75	111.5	19.132
24	111.5	19.002
24.25	111.5	18.904
24.5	111.5	18.781
24.75	111.5	18.696
25	111.5	18.568
25.25	111.5	18.518
25.5	111.5	18.519
25.75	111.5	18.545
26	111.5	18.589
26.25	111.5	18.58
26.5	111.5	18.568
26.75	111.5	18.568
27	111.5	18.549
27.25	111.5	18.531
27.5	111.5	18.526
27.75	111.5	18.522
28	111.5	18.529
28.25	111.5	18.524
28.5	111.5	18.519
28.75	111.5	18.513
29	111.5	18.5
29.25	111.5	18.5
29.5	111.5	18.483
29.75	111.5	18.444
30	111.5	18.406
30.25	111.5	18.363
30.5	111.5	18.306
30.75	111.5	18.238
31	111.5	18.198
31.25	111.5	18.168
31.5	111.5	18.151
31.75	111.5	18.131
32	111.5	18.103
32.25	111.5	18.059
32.5	111.5	18.048
32.75	111.5	18.022
33	111.5	17.985
33.25	111.5	17.948
33.5	111.5	17.915
33.75	111.5	17.888
34	111.5	17.874
34.25	111.5	17.875
34.5	111.5	17.861
34.75	111.5	17.854
35	111.5	17.816
35.25	111.5	17.784
35.5	111.5	17.78
35.75	111.5	17.749
36	111.5	17.757
36.25	111.5	17.77
36.5	111.5	17.773
36.75	111.5	17.798
37	111.5	17.884
37.25	111.5	17.997
37.5	111.5	18.108
37.75	111.5	18.191
38	111.5	18.286
38.25	111.5	18.373
38.5	111.5	18.48
38.75	111.5	18.585
39	111.5	18.669
39.25	111.5	18.786
39.5	111.5	18.886
39.75	111.5	18.989
40	111.5	19.107
40.25	111.5	19.218
40.5	111.5	19.32
40.75	111.5	19.389
41	111.5	19.559
41.25	111.5	19.66
41.5	111.5	19.679
22	111.75	19.784
22.25	111.75	19.721
22.5	111.75	19.622
22.75	111.75	19.516
23	111.75	19.43
23.25	111.75	19.317
23.5	111.75	19.217
23.75	111.75	19.091
24	111.75	18.98
24.25	111.75	18.856
24.5	111.75	18.764
24.75	111.75	18.675
25	111.75	18.546
25.25	111.75	18.497
25.5	111.75	18.507
25.75	111.75	18.539
26	111.75	18.57
26.25	111.75	18.573
26.5	111.75	18.569
26.75	111.75	18.562
27	111.75	18.549
27.25	111.75	18.517
27.5	111.75	18.508
27.75	111.75	18.508
28	111.75	18.519
28.25	111.75	18.512
28.5	111.75	18.509
28.75	111.75	18.51
29	111.75	18.5
29.25	111.75	18.496
29.5	111.75	18.472
29.75	111.75	18.444
30	111.75	18.405
30.25	111.75	18.367
30.5	111.75	18.313
30.75	111.75	18.246
31	111.75	18.189
31.25	111.75	18.151
31.5	111.75	18.133
31.75	111.75	18.117
32	111.75	18.097
32.25	111.75	18.07
32.5	111.75	18.046
32.75	111.75	18.017
33	111.75	17.989
33.25	111.75	17.943
33.5	111.75	17.917
33.75	111.75	17.9
34	111.75	17.893
34.25	111.75	17.883
34.5	111.75	17.884
34.75	111.75	17.871
35	111.75	17.836
35.25	111.75	17.786
35.5	111.75	17.767
35.75	111.75	17.754
36	111.75	17.774
36.25	111.75	17.783
36.5	111.75	17.787
36.75	111.75	17.832
37	111.75	17.919
37.25	111.75	18.02
37.5	111.75	18.109
37.75	111.75	18.197
38	111.75	18.288
38.25	111.75	18.409
38.5	111.75	18.523
38.75	111.75	18.602
39	111.75	18.719
39.25	111.75	18.826
39.5	111.75	18.91
39.75	111.75	18.995
40	111.75	19.116
40.25	111.75	19.258
40.5	111.75	19.34
40.75	111.75	19.471
41	111.75	19.541
41.25	111.75	19.692
22	112	19.744
22.25	112	19.699
22.5	112	19.604
22.75	112	19.494
23	112	19.398
23.25	112	19.302
23.5	112	19.185
23.75	112	19.068
24	112	18.963
24.25	112	18.84
24.5	112	18.738
24.75	112	18.639
25	112	18.541
25.25	112	18.481
25.5	112	18.493
25.75	112	18.515
26	112	18.535
26.25	112	18.557
26.5	112	18.548
26.75	112	18.554
27	112	18.536
27.25	112	18.506
27.5	112	18.5
27.75	112	18.501
28	112	18.508
28.25	112	18.5
28.5	112	18.503
28.75	112	18.498
29	112	18.493
29.25	112	18.483
29.5	112	18.46
29.75	112	18.435
30	112	18.412
30.25	112	18.37
30.5	112	18.334
30.75	112	18.252
31	112	18.192
31.25	112	18.156
31.5	112	18.126
31.75	112	18.098
32	112	18.077
32.25	112	18.061
32.5	112	18.048
32.75	112	18.011
33	112	17.998
33.25	112	17.945
33.5	112	17.921
33.75	112	17.901
34	112	17.905
34.25	112	17.915
34.5	112	17.908
34.75	112	17.895
35	112	17.873
35.25	112	17.854
35.5	112	17.785
35.75	112	17.767
36	112	17.787
36.25	112	17.799
36.5	112	17.804
36.75	112	17.854
37	112	17.932
37.25	112	18.043
37.5	112	18.139
37.75	112	18.216
38	112	18.319
38.25	112	18.421
38.5	112	18.537
38.75	112	18.649
39	112	18.758
39.25	112	18.863
39.5	112	18.935
39.75	112	19.057
40	112	19.169
40.25	112	19.264
40.5	112	19.388
40.75	112	19.536
41	112	19.561
41.25	112	19.696
21.75	112.25	19.793
22	112.25	19.73
22.25	112.25	19.671
22.5	112.25	19.569
22.75	112.25	19.467
23	112.25	19.383
23.25	112.25	19.263
23.5	112.25	19.17
23.75	112.25	19.044
24	112.25	18.938
24.25	112.25	18.817
24.5	112.25	18.711
24.75	112.25	18.605
25	112.25	18.508
25.25	112.25	18.473
25.5	112.25	18.499
25.75	112.25	18.52
26	112.25	18.527
26.25	112.25	18.534
26.5	112.25	18.533
26.75	112.25	18.543
27	112.25	18.518
27.25	112.25	18.5
27.5	112.25	18.489
27.75	112.25	18.496
28	112.25	18.488
28.25	112.25	18.492
28.5	112.25	18.489
28.75	112.25	18.497
29	112.25	18.494
29.25	112.25	18.485
29.5	112.25	18.458
29.75	112.25	18.437
30	112.25	18.407
30.25	112.25	18.366
30.5	112.25	18.341
30.75	112.25	18.253
31	112.25	18.182
31.25	112.25	18.139
31.5	112.25	18.105
31.75	112.25	18.08
32	112.25	18.067
32.25	112.25	18.053
32.5	112.25	18.037
32.75	112.25	18.021
33	112.25	17.994
33.25	112.25	17.951
33.5	112.25	17.929
33.75	112.25	17.929
34	112.25	17.931
34.25	112.25	17.937
34.5	112.25	17.947
34.75	112.25	17.951
35	112.25	17.939
35.25	112.25	17.921
35.5	112.25	17.834
35.75	112.25	17.806
36	112.25	17.804
36.25	112.25	17.814
36.5	112.25	17.823
36.75	112.25	17.869
37	112.25	17.97
37.25	112.25	18.066
37.5	112.25	18.15
37.75	112.25	18.247
38	112.25	18.346
38.25	112.25	18.478
38.5	112.25	18.562
38.75	112.25	18.672
39	112.25	18.782
39.25	112.25	18.871
39.5	112.25	18.973
39.75	112.25	19.08
40	112.25	19.185
40.25	112.25	19.285
40.5	112.25	19.379
40.75	112.25	19.506
41	112.25	19.573
21.75	112.5	19.789
22	112.5	19.725
22.25	112.5	19.639
22.5	112.5	19.531
22.75	112.5	19.447
23	112.5	19.34
23.25	112.5	19.24
23.5	112.5	19.143
23.75	112.5	19.025
24	112.5	18.903
24.25	112.5	18.782
24.5	112.5	18.67
24.75	112.5	18.58
25	112.5	18.486
25.25	112.5	18.477
25.5	112.5	18.482
25.75	112.5	18.491
26	112.5	18.515
26.25	112.5	18.527
26.5	112.5	18.523
26.75	112.5	18.522
27	112.5	18.517
27.25	112.5	18.485
27.5	112.5	18.479
27.75	112.5	18.485
28	112.5	18.48
28.25	112.5	18.484
28.5	112.5	18.48
28.75	112.5	18.478
29	112.5	18.477
29.25	112.5	18.471
29.5	112.5	18.463
29.75	112.5	18.425
30	112.5	18.406
30.25	112.5	18.364
30.5	112.5	18.331
30.75	112.5	18.259
31	112.5	18.198
31.25	112.5	18.143
31.5	112.5	18.104
31.75	112.5	18.08
32	112.5	18.077
32.25	112.5	18.052
32.5	112.5	18.036
32.75	112.5	18.01
33	112.5	17.989
33.25	112.5	17.969
33.5	112.5	17.952
33.75	112.5	17.956
34	112.5	17.972
34.25	112.5	17.978
34.5	112.5	17.995
34.75	112.5	17.986
35	112.5	17.973
35.25	112.5	17.937
35.5	112.5	17.898
35.75	112.5	17.831
36	112.5	17.86
36.25	112.5	17.86
36.5	112.5	17.861
36.75	112.5	17.906
37	112.5	17.98
37.25	112.5	18.095
37.5	112.5	18.173
37.75	112.5	18.275
38	112.5	18.369
38.25	112.5	18.493
38.5	112.5	18.584
38.75	112.5	18.684
39	112.5	18.805
39.25	112.5	18.902
39.5	112.5	18.986
39.75	112.5	19.119
40	112.5	19.233
40.25	112.5	19.313
40.5	112.5	19.451
41	112.5	19.627
41.25	112.5	19.721
22	112.75	19.699
22.25	112.75	19.611
22.5	112.75	19.502
22.75	112.75	19.418
23	112.75	19.308
23.25	112.75	19.206
23.5	112.75	19.105
23.75	112.75	18.993
24	112.75	18.869
24.25	112.75	18.755
24.5	112.75	18.653
24.75	112.75	18.554
25	112.75	18.475
25.25	112.75	18.463
25.5	112.75	18.469
25.75	112.75	18.501
26	112.75	18.495
26.25	112.75	18.506
26.5	112.75	18.514
26.75	112.75	18.508
27	112.75	18.504
27.25	112.75	18.481
27.5	112.75	18.48
27.75	112.75	18.481
28	112.75	18.475
28.25	112.75	18.48
28.5	112.75	18.47
28.75	112.75	18.467
29	112.75	18.469
29.25	112.75	18.474
29.5	112.75	18.458
29.75	112.75	18.432
30	112.75	18.405
30.25	112.75	18.376
30.5	112.75	18.321
30.75	112.75	18.27
31	112.75	18.206
31.25	112.75	18.149
31.5	112.75	18.115
31.75	112.75	18.083
32	112.75	18.067
32.25	112.75	18.054
32.5	112.75	18.031
32.75	112.75	18.014
33	112.75	18.002
33.25	112.75	17.986
33.5	112.75	17.999
33.75	112.75	18.006
34	112.75	18.028
34.25	112.75	18.026
34.5	112.75	18.019
34.75	112.75	18.008
35	112.75	18.001
35.25	112.75	17.986
35.5	112.75	17.952
35.75	112.75	17.912
36	112.75	17.891
36.25	112.75	17.896
36.5	112.75	17.919
36.75	112.75	17.936
37	112.75	18.002
37.25	112.75	18.101
37.5	112.75	18.2
37.75	112.75	18.291
38	112.75	18.384
38.25	112.75	18.491
38.5	112.75	18.6
38.75	112.75	18.703
39	112.75	18.835
39.25	112.75	18.939
39.5	112.75	19.044
39.75	112.75	19.13
40	112.75	19.255
40.25	112.75	19.329
40.5	112.75	19.487
40.75	112.75	19.584
41	112.75	19.674
41.25	112.75	19.73
21.75	113	19.756
22	113	19.697
22.25	113	19.577
22.5	113	19.466
22.75	113	19.371
23	113	19.285
23.25	113	19.161
23.5	113	19.064
23.75	113	18.933
24	113	18.827
24.25	113	18.724
24.5	113	18.625
24.75	113	18.521
25	113	18.46
25.25	113	18.453
25.5	113	18.463
25.75	113	18.482
26	113	18.487
26.25	113	18.485
26.5	113	18.498
26.75	113	18.496
27	113	18.496
27.25	113	18.482
27.5	113	18.466
27.75	113	18.464
28	113	18.465
28.25	113	18.473
28.5	113	18.469
28.75	113	18.465
29	113	18.458
29.25	113	18.449
29.5	113	18.445
29.75	113	18.423
30	113	18.408
30.25	113	18.378
30.5	113	18.318
30.75	113	18.256
31	113	18.191
31.25	113	18.151
31.5	113	18.108
31.75	113	18.094
32	113	18.066
32.25	113	18.049
32.5	113	18.028
32.75	113	18.021
33	113	18.019
33.25	113	18.024
33.5	113	18.029
33.75	113	18.044
34	113	18.047
34.25	113	18.049
34.5	113	18.051
34.75	113	18.042
35	113	18.026
35.25	113	18.024
35.5	113	18.014
35.75	113	17.969
36	113	17.94
36.25	113	17.943
36.5	113	17.947
36.75	113	17.96
37	113	18.012
37.25	113	18.12
37.5	113	18.213
37.75	113	18.297
38	113	18.411
38.25	113	18.524
38.5	113	18.625
38.75	113	18.736
39	113	18.874
39.25	113	18.948
39.5	113	19.07
39.75	113	19.168
40	113	19.237
40.25	113	19.353
40.75	113	19.551
41	113	19.678
41.25	113	19.702
21.75	113.25	19.715
22	113.25	19.68
22.25	113.25	19.565
22.5	113.25	19.448
22.75	113.25	19.356
23	113.25	19.231
23.25	113.25	19.143
23.5	113.25	19.038
23.75	113.25	18.901
24	113.25	18.79
24.25	113.25	18.701
24.5	113.25	18.59
24.75	113.25	18.487
25	113.25	18.436
25.25	113.25	18.449
25.5	113.25	18.456
25.75	113.25	18.479
26	113.25	18.478
26.25	113.25	18.478
26.5	113.25	18.486
26.75	113.25	18.483
27	113.25	18.49
27.25	113.25	18.473
27.5	113.25	18.447
27.75	113.25	18.442
28	113.25	18.448
28.25	113.25	18.461
28.5	113.25	18.46
28.75	113.25	18.454
29	113.25	18.447
29.25	113.25	18.44
29.5	113.25	18.435
29.75	113.25	18.421
30	113.25	18.395
30.25	113.25	18.366
30.5	113.25	18.314
30.75	113.25	18.249
31	113.25	18.189
31.25	113.25	18.14
31.5	113.25	18.113
31.75	113.25	18.106
32	113.25	18.076
32.25	113.25	18.053
32.5	113.25	18.03
32.75	113.25	18.024
33	113.25	18.042
33.25	113.25	18.048
33.5	113.25	18.06
33.75	113.25	18.061
34	113.25	18.074
34.25	113.25	18.084
34.5	113.25	18.097
34.75	113.25	18.089
35	113.25	18.075
35.25	113.25	18.07
35.5	113.25	18.069
35.75	113.25	18.038
36	113.25	17.995
36.25	113.25	17.978
36.5	113.25	17.974
36.75	113.25	17.981
37	113.25	18.049
37.25	113.25	18.146
37.5	113.25	18.235
37.75	113.25	18.328
38	113.25	18.424
38.25	113.25	18.542
38.5	113.25	18.658
38.75	113.25	18.76
39	113.25	18.879
39.25	113.25	18.98
39.5	113.25	19.089
39.75	113.25	19.212
40	113.25	19.289
40.25	113.25	19.398
40.5	113.25	19.414
40.75	113.25	19.561
41	113.25	19.757
21.75	113.5	19.738
22	113.5	19.628
22.25	113.5	19.545
22.5	113.5	19.42
22.75	113.5	19.327
23	113.5	19.223
23.25	113.5	19.111
23.5	113.5	19.017
23.75	113.5	18.901
24	113.5	18.764
24.25	113.5	18.662
24.5	113.5	18.565
24.75	113.5	18.474
25	113.5	18.449
25.25	113.5	18.453
25.5	113.5	18.458
25.75	113.5	18.468
26	113.5	18.472
26.25	113.5	18.472
26.5	113.5	18.469
26.75	113.5	18.47
27	113.5	18.462
27.25	113.5	18.449
27.5	113.5	18.432
27.75	113.5	18.43
28	113.5	18.453
28.25	113.5	18.444
28.5	113.5	18.445
28.75	113.5	18.448
29	113.5	18.445
29.25	113.5	18.435
29.5	113.5	18.421
29.75	113.5	18.417
30	113.5	18.388
30.25	113.5	18.357
30.5	113.5	18.322
30.75	113.5	18.262
31	113.5	18.205
31.25	113.5	18.156
31.5	113.5	18.125
31.75	113.5	18.105
32	113.5	18.088
32.25	113.5	18.067
32.5	113.5	18.049
32.75	113.5	18.053
33	113.5	18.069
33.25	113.5	18.077
33.5	113.5	18.085
33.75	113.5	18.088
34	113.5	18.114
34.25	113.5	18.135
34.5	113.5	18.148
34.75	113.5	18.135
35	113.5	18.125
35.25	113.5	18.121
35.5	113.5	18.111
35.75	113.5	18.069
36	113.5	18.037
36.25	113.5	18.009
36.5	113.5	18.003
36.75	113.5	17.997
37	113.5	18.05
37.25	113.5	18.166
37.5	113.5	18.263
37.75	113.5	18.346
38	113.5	18.459
38.25	113.5	18.575
38.5	113.5	18.666
38.75	113.5	18.801
39	113.5	18.901
39.25	113.5	19.015
39.5	113.5	19.119
39.75	113.5	19.252
40	113.5	19.354
40.25	113.5	19.456
40.5	113.5	19.518
40.75	113.5	19.545
41	113.5	19.758
21.75	113.75	19.708
22	113.75	19.618
22.25	113.75	19.512
22.5	113.75	19.407
22.75	113.75	19.291
23	113.75	19.201
23.25	113.75	19.095
23.5	113.75	18.991
23.75	113.75	18.862
24	113.75	18.746
24.25	113.75	18.651
24.5	113.75	18.554
24.75	113.75	18.46
25	113.75	18.458
25.25	113.75	18.46
25.5	113.75	18.462
25.75	113.75	18.466
26	113.75	18.454
26.25	113.75	18.456
26.5	113.75	18.461
26.75	113.75	18.452
27	113.75	18.432
27.25	113.75	18.423
27.5	113.75	18.413
27.75	113.75	18.423
28	113.75	18.43
28.25	113.75	18.438
28.5	113.75	18.434
28.75	113.75	18.431
29	113.75	18.441
29.25	113.75	18.439
29.5	113.75	18.427
29.75	113.75	18.423
30	113.75	18.39
30.25	113.75	18.357
30.5	113.75	18.311
30.75	113.75	18.258
31	113.75	18.206
31.25	113.75	18.171
31.5	113.75	18.129
31.75	113.75	18.119
32	113.75	18.1
32.25	113.75	18.092
32.5	113.75	18.077
32.75	113.75	18.094
33	113.75	18.1
33.25	113.75	18.108
33.5	113.75	18.107
33.75	113.75	18.133
34	113.75	18.151
34.25	113.75	18.174
34.5	113.75	18.177
34.75	113.75	18.167
35	113.75	18.169
35.25	113.75	18.164
35.5	113.75	18.148
35.75	113.75	18.1
36	113.75	18.079
36.25	113.75	18.066
36.5	113.75	18.023
36.75	113.75	18.014
37	113.75	18.073
37.25	113.75	18.17
37.5	113.75	18.268
37.75	113.75	18.368
38	113.75	18.476
38.25	113.75	18.582
38.5	113.75	18.68
38.75	113.75	18.807
39	113.75	18.929
39.25	113.75	19.025
39.5	113.75	19.142
39.75	113.75	19.242
40	113.75	19.39
40.25	113.75	19.466
40.75	113.75	19.661
41	113.75	19.697
21.5	114	19.795
21.75	114	19.72
22	114	19.594
22.25	114	19.496
22.5	114	19.376
22.75	114	19.251
23	114	19.168
23.25	114	19.081
23.5	114	18.947
23.75	114	18.852
24	114	18.721
24.25	114	18.64
24.5	114	18.527
24.75	114	18.46
25	114	18.458
25.25	114	18.464
25.5	114	18.457
25.75	114	18.466
26	114	18.454
26.25	114	18.444
26.5	114	18.448
26.75	114	18.431
27	114	18.416
27.25	114	18.405
27.5	114	18.404
27.75	114	18.412
28	114	18.413
28.25	114	18.411
28.5	114	18.413
28.75	114	18.42
29	114	18.431
29.25	114	18.423
29.5	114	18.423
29.75	114	18.412
30	114	18.373
30.25	114	18.351
30.5	114	18.307
30.75	114	18.264
31	114	18.207
31.25	114	18.172
31.5	114	18.145
31.75	114	18.126
32	114	18.115
32.25	114	18.108
32.5	114	18.111
32.75	114	18.117
33	114	18.112
33.25	114	18.128
33.5	114	18.157
33.75	114	18.179
34	114	18.192
34.25	114	18.205
34.5	114	18.201
34.75	114	18.194
35	114	18.2
35.25	114	18.191
35.5	114	18.169
35.75	114	18.138
36	114	18.118
36.25	114	18.086
36.5	114	18.056
36.75	114	18.037
37	114	18.092
37.25	114	18.193
37.5	114	18.266
37.75	114	18.384
38	114	18.503
38.25	114	18.603
38.5	114	18.72
38.75	114	18.824
39	114	18.929
39.25	114	19.04
39.5	114	19.174
39.75	114	19.262
40	114	19.373
40.25	114	19.458
40.75	114	19.687
41	114	19.699
21.5	114.25	19.783
21.75	114.25	19.693
22	114.25	19.583
22.25	114.25	19.476
22.5	114.25	19.364
22.75	114.25	19.243
23	114.25	19.135
23.25	114.25	19.033
23.5	114.25	18.931
23.75	114.25	18.821
24	114.25	18.71
24.25	114.25	18.621
24.5	114.25	18.501
24.75	114.25	18.45
25	114.25	18.457
25.25	114.25	18.458
25.5	114.25	18.464
25.75	114.25	18.453
26	114.25	18.444
26.25	114.25	18.434
26.5	114.25	18.418
26.75	114.25	18.413
27	114.25	18.399
27.25	114.25	18.393
27.5	114.25	18.394
27.75	114.25	18.408
28	114.25	18.408
28.25	114.25	18.39
28.5	114.25	18.394
28.75	114.25	18.409
29	114.25	18.402
29.25	114.25	18.404
29.5	114.25	18.393
29.75	114.25	18.38
30	114.25	18.359
30.25	114.25	18.319
30.5	114.25	18.276
30.75	114.25	18.242
31	114.25	18.19
31.25	114.25	18.164
31.5	114.25	18.142
31.75	114.25	18.133
32	114.25	18.121
32.25	114.25	18.116
32.5	114.25	18.122
32.75	114.25	18.122
33	114.25	18.126
33.25	114.25	18.153
33.5	114.25	18.203
33.75	114.25	18.22
34	114.25	18.23
34.25	114.25	18.225
34.5	114.25	18.221
34.75	114.25	18.212
35	114.25	18.215
35.25	114.25	18.209
35.5	114.25	18.193
35.75	114.25	18.152
36	114.25	18.125
36.25	114.25	18.104
36.5	114.25	18.084
36.75	114.25	18.072
37	114.25	18.125
37.25	114.25	18.205
37.5	114.25	18.291
37.75	114.25	18.407
38	114.25	18.528
38.25	114.25	18.619
38.5	114.25	18.718
38.75	114.25	18.843
39	114.25	18.934
39.25	114.25	19.056
39.5	114.25	19.17
39.75	114.25	19.263
40	114.25	19.408
40.25	114.25	19.445
41	114.25	19.777
21.25	114.5	19.714
21.5	114.5	19.753
21.75	114.5	19.687
22	114.5	19.577
22.25	114.5	19.444
22.5	114.5	19.337
22.75	114.5	19.212
23	114.5	19.111
23.25	114.5	19.017
23.5	114.5	18.922
23.75	114.5	18.8
24	114.5	18.699
24.25	114.5	18.596
24.5	114.5	18.484
24.75	114.5	18.455
25	114.5	18.454
25.25	114.5	18.464
25.5	114.5	18.462
25.75	114.5	18.449
26	114.5	18.435
26.25	114.5	18.405
26.5	114.5	18.397
26.75	114.5	18.397
27	114.5	18.384
27.25	114.5	18.392
27.5	114.5	18.395
27.75	114.5	18.397
28	114.5	18.383
28.25	114.5	18.383
28.5	114.5	18.376
28.75	114.5	18.392
29	114.5	18.381
29.25	114.5	18.384
29.5	114.5	18.374
29.75	114.5	18.364
30	114.5	18.333
30.25	114.5	18.297
30.5	114.5	18.261
30.75	114.5	18.217
31	114.5	18.176
31.25	114.5	18.159
31.5	114.5	18.141
31.75	114.5	18.129
32	114.5	18.127
32.25	114.5	18.13
32.5	114.5	18.128
32.75	114.5	18.143
33	114.5	18.169
33.25	114.5	18.209
33.5	114.5	18.24
33.75	114.5	18.251
34	114.5	18.252
34.25	114.5	18.238
34.5	114.5	18.22
34.75	114.5	18.234
35	114.5	18.235
35.25	114.5	18.221
35.5	114.5	18.203
35.75	114.5	18.166
36	114.5	18.148
36.25	114.5	18.141
36.5	114.5	18.104
36.75	114.5	18.098
37	114.5	18.149
37.25	114.5	18.211
37.5	114.5	18.328
37.75	114.5	18.408
38	114.5	18.53
38.25	114.5	18.618
38.5	114.5	18.715
38.75	114.5	18.83
39	114.5	18.947
39.25	114.5	19.06
39.5	114.5	19.215
39.75	114.5	19.287
40	114.5	19.378
40.25	114.5	19.547
21.5	114.75	19.76
21.75	114.75	19.674
22	114.75	19.534
22.25	114.75	19.43
22.5	114.75	19.304
22.75	114.75	19.2
23	114.75	19.094
23.25	114.75	19.005
23.5	114.75	18.914
23.75	114.75	18.809
24	114.75	18.691
24.25	114.75	18.581
24.5	114.75	18.492
24.75	114.75	18.425
25	114.75	18.457
25.25	114.75	18.462
25.5	114.75	18.459
25.75	114.75	18.441
26	114.75	18.43
26.25	114.75	18.393
26.5	114.75	18.378
26.75	114.75	18.37
27	114.75	18.377
27.25	114.75	18.387
27.5	114.75	18.387
27.75	114.75	18.387
28	114.75	18.394
28.25	114.75	18.386
28.5	114.75	18.383
28.75	114.75	18.366
29	114.75	18.372
29.25	114.75	18.37
29.5	114.75	18.364
29.75	114.75	18.352
30	114.75	18.316
30.25	114.75	18.283
30.5	114.75	18.24
30.75	114.75	18.204
31	114.75	18.166
31.25	114.75	18.151
31.5	114.75	18.134
31.75	114.75	18.138
32	114.75	18.144
32.25	114.75	18.147
32.5	114.75	18.15
32.75	114.75	18.176
33	114.75	18.22
33.25	114.75	18.24
33.5	114.75	18.26
33.75	114.75	18.27
34	114.75	18.273
34.25	114.75	18.26
34.5	114.75	18.242
34.75	114.75	18.249
35	114.75	18.238
35.25	114.75	18.214
35.5	114.75	18.207
35.75	114.75	18.194
36	114.75	18.167
36.25	114.75	18.149
36.5	114.75	18.113
36.75	114.75	18.1
37	114.75	18.153
37.25	114.75	18.234
37.5	114.75	18.333
37.75	114.75	18.443
38	114.75	18.53
38.25	114.75	18.645
38.5	114.75	18.739
38.75	114.75	18.846
39	114.75	18.963
39.25	114.75	19.073
39.5	114.75	19.242
39.75	114.75	19.322
40	114.75	19.386
40.25	114.75	19.558
40.5	114.75	19.653
40.75	114.75	19.68
21.5	115	19.756
21.75	115	19.654
22	115	19.528
22.25	115	19.404
22.5	115	19.289
22.75	115	19.175
23	115	19.088
23.25	115	18.977
23.5	115	18.887
23.75	115	18.775
24	115	18.68
24.25	115	18.551
24.5	115	18.462
24.75	115	18.438
25	115	18.451
25.25	115	18.441
25.5	115	18.447
25.75	115	18.432
26	115	18.419
26.25	115	18.398
26.5	115	18.372
26.75	115	18.357
27	115	18.374
27.25	115	18.379
27.5	115	18.38
27.75	115	18.389
28	115	18.387
28.25	115	18.375
28.5	115	18.366
28.75	115	18.369
29	115	18.358
29.25	115	18.366
29.5	115	18.35
29.75	115	18.337
30	115	18.306
30.25	115	18.28
30.5	115	18.25
30.75	115	18.197
31	115	18.167
31.25	115	18.153
31.5	115	18.146
31.75	115	18.154
32	115	18.153
32.25	115	18.156
32.5	115	18.176
32.75	115	18.22
33	115	18.25
33.25	115	18.248
33.5	115	18.259
33.75	115	18.271
34	115	18.281
34.25	115	18.263
34.5	115	18.261
34.75	115	18.25
35	115	18.242
35.25	115	18.235
35.5	115	18.221
35.75	115	18.198
36	115	18.189
36.25	115	18.15
36.5	115	18.116
36.75	115	18.106
37	115	18.159
37.25	115	18.265
37.5	115	18.34
37.75	115	18.47
38	115	18.552
38.25	115	18.673
38.5	115	18.77
38.75	115	18.881
39	115	18.986
39.25	115	19.089
39.5	115	19.234
39.75	115	19.361
40	115	19.41
40.25	115	19.579
40.5	115	19.633
21.5	115.25	19.722
21.75	115.25	19.633
22	115.25	19.507
22.25	115.25	19.397
22.5	115.25	19.273
22.75	115.25	19.168
23	115.25	19.068
23.25	115.25	18.951
23.5	115.25	18.858
23.75	115.25	18.738
24	115.25	18.642
24.25	115.25	18.511
24.5	115.25	18.436
24.75	115.25	18.42
25	115.25	18.443
25.25	115.25	18.436
25.5	115.25	18.436
25.75	115.25	18.424
26	115.25	18.412
26.25	115.25	18.391
26.5	115.25	18.371
26.75	115.25	18.364
27	115.25	18.363
27.25	115.25	18.375
27.5	115.25	18.374
27.75	115.25	18.367
28	115.25	18.361
28.25	115.25	18.356
28.5	115.25	18.354
28.75	115.25	18.36
29	115.25	18.359
29.25	115.25	18.354
29.5	115.25	18.345
29.75	115.25	18.334
30	115.25	18.307
30.25	115.25	18.28
30.5	115.25	18.239
30.75	115.25	18.207
31	115.25	18.176
31.25	115.25	18.165
31.5	115.25	18.161
31.75	115.25	18.155
32	115.25	18.167
32.25	115.25	18.167
32.5	115.25	18.207
32.75	115.25	18.243
33	115.25	18.25
33.25	115.25	18.253
33.5	115.25	18.259
33.75	115.25	18.258
34	115.25	18.271
34.25	115.25	18.279
34.5	115.25	18.276
34.75	115.25	18.271
35	115.25	18.265
35.25	115.25	18.253
35.5	115.25	18.221
35.75	115.25	18.196
36	115.25	18.186
36.25	115.25	18.162
36.5	115.25	18.132
36.75	115.25	18.128
37	115.25	18.194
37.25	115.25	18.271
37.5	115.25	18.38
37.75	115.25	18.48
38	115.25	18.588
38.25	115.25	18.659
38.5	115.25	18.785
38.75	115.25	18.878
39	115.25	19.013
39.25	115.25	19.144
39.5	115.25	19.258
39.75	115.25	19.368
40	115.25	19.414
40.25	115.25	19.534
40.5	115.25	19.627
40.75	115.25	19.762
21.25	115.5	19.756
21.5	115.5	19.695
21.75	115.5	19.614
22	115.5	19.491
22.25	115.5	19.364
22.5	115.5	19.232
22.75	115.5	19.143
23	115.5	19.046
23.25	115.5	18.94
23.5	115.5	18.844
23.75	115.5	18.724
24	115.5	18.609
24.25	115.5	18.489
24.5	115.5	18.413
24.75	115.5	18.398
25	115.5	18.424
25.25	115.5	18.432
25.5	115.5	18.429
25.75	115.5	18.405
26	115.5	18.392
26.25	115.5	18.362
26.5	115.5	18.347
26.75	115.5	18.353
27	115.5	18.355
27.25	115.5	18.366
27.5	115.5	18.364
27.75	115.5	18.353
28	115.5	18.338
28.25	115.5	18.347
28.5	115.5	18.339
28.75	115.5	18.363
29	115.5	18.361
29.25	115.5	18.369
